# .PCD v0.7 - Point Cloud Data file format
VERSION 0.7
FIELDS x y z intensity
SIZE 4 4 4 4
TYPE F F F F
COUNT 1 1 1 1
WIDTH 1426
HEIGHT 1
VIEWPOINT 0 0 0 1 0 0 0
POINTS 1426
DATA ascii
4.4253263 6.7557964 0.54915947 0
4.5291286 6.7558484 0.55195379 0
4.6338553 6.7559061 0.55507493 0
4.739418 6.7559681 0.55846328 0
4.8104048 6.756012 0.56090415 0
4.9179058 6.7560825 0.56484544 0
5.4925747 1.4613559 0.53227252 0
5.584785 1.4617474 0.55637228 0
5.6858106 1.4621788 0.5828923 0
6.6584659 1.4263902 0.61846477 0
6.6584578 1.3587955 0.62186831 0
6.9594483 6.7549171 0.48215055 0
6.8252273 1.4612567 0.53340733 0
7.0609088 6.7550163 0.48791286 0
7.1644993 6.7551193 0.49390122 0
7.2703328 6.7552261 0.50012541 0
7.0910511 1.4619623 0.5764209 0
7.3785262 6.7553372 0.50659591 0
7.4137745 6.6628938 0.50319427 0
7.4138408 6.5307178 0.49537876 0
7.4139037 6.4029675 0.48792779 0
7.4138403 2.5170069 0.61695284 0
7.4138641 2.4082179 0.61602271 0
7.4138851 2.3000038 0.61558616 0
7.4139028 2.1921842 0.61563897 0
7.4139142 2.1114688 0.61598337 0
7.4139247 2.0308058 0.61663228 0
7.4139357 1.9231962 0.6179046 0
7.4139438 1.8153615 0.61966842 0
7.41395 1.707123 0.62192857 0
7.4139519 1.6255932 0.62393785 0
-4.0760016 1.4621904 0.63703233 0
-1.9764986 1.4628196 0.66639841 0
-1.3056681 1.4616315 0.58858007 0
-0.34021801 1.4622165 0.6206432 0
0.31547645 1.4626416 0.64418679 0
0.44834703 2.4120231 0.6046952 0
0.56861663 1.4619155 0.59737927 0
0.6513164 1.3427594 0.58804572 0
0.82258916 2.4125953 0.63879651 0
1.1179421 2.413286 0.66791499 0
1.3644027 2.4122877 0.6041013 0
2.0410862 6.7557516 0.56059766 0
2.1158824 6.7557178 0.55811054 0
2.3635151 5.6514168 0.56633192 0
2.3630867 5.3534193 0.65176797 0
2.3632381 5.2197075 0.62877709 0
2.3633788 5.095027 0.60747027 0
2.3635097 4.978447 0.58767462 0
2.3636315 4.8691597 0.56924015 0
2.3631318 4.767293 0.66139883 0
2.3632565 4.6705437 0.64214307 0
2.363373 4.5792255 0.62410188 0
2.3635342 4.4519386 0.59920937 0
2.3636832 4.3333273 0.57626158 0
2.3632367 4.2601914 0.6566605 0
2.3633833 4.1562324 0.63371694 0
2.3635623 4.0278206 0.6058057 0
2.3636856 3.9383321 0.58666849 0
5.026516 6.7561579 0.5690735 0
5.1366496 6.7562394 0.57367086 0
5.2481179 6.7563262 0.57857335 0
5.3233862 6.7563868 0.58205092 0
5.4378505 6.756484 0.58759254 0
5.5539856 6.7565866 0.59346986 0
5.6326008 6.7566581 0.59761924 0
5.7121696 6.7567325 0.60194802 0
5.8335595 6.7568512 0.60881299 0
5.957119 6.7569757 0.61606359 0
6.0410333 6.7570629 0.6211645 0
6.1261783 6.7571535 0.62647372 0
6.2126169 6.7572489 0.63199824 0
6.3004146 6.7573466 0.63774532 0
6.4350061 6.7575016 0.64683062 0
6.5726762 6.7576637 0.65640175 0
6.6666412 6.7577777 0.6631214 0
6.7623487 6.7578964 0.67010754 0
6.8598881 6.7580194 0.67737055 0
6.658452 1.3133352 0.62432158 0
6.8198609 1.4630896 0.64850098 0
7.084826 1.4639425 0.7007727 0
7.4128466 6.281075 0.68018186 0
7.4129229 6.1613636 0.67026639 0
7.4129958 6.0453348 0.6607933 0
7.4130654 5.9327745 0.651739 0
7.4131327 5.8234863 0.64308149 0
7.413197 5.7172861 0.63480043 0
7.413259 5.6140037 0.62687671 0
7.4133186 5.5134797 0.61929291 0
7.4537001 5.4516478 0.61861748 0
7.4137764 2.7648129 0.62086856 0
7.4137917 2.7092962 0.61977142 0
7.4138131 2.6265559 0.61838257 0
7.4139533 1.5710068 0.62544698 0
7.4139528 1.5162165 0.62708503 0
7.403903 1.4627947 0.62716746 0
-5.0869122 2.7636969 0.70921499 0
-5.0868931 2.6378932 0.70944542 0
-5.0868735 2.5123274 0.70983237 0
-5.0883832 2.3870056 0.7104997 0
-5.0883656 2.261739 0.7111991 0
-5.0883493 2.1365554 0.71205479 0
-5.0883331 2.0114036 0.71306688 0
-5.0883193 1.8862325 0.71423596 0
-5.0883055 1.7609906 0.71556246 0
-5.0882926 1.6356261 0.71704715 0
-5.0882792 1.5100882 0.71869093 0
-5.088201 -0.16213369 0.75525713 0
-5.088202 -0.29585361 0.7593205 0
-5.0882025 -0.4306078 0.76357818 0
-0.050139368 2.4134722 0.69805646 0
0.43917131 2.4139287 0.72435933 0
0.8135438 2.4145207 0.74688715 0
2.0395734 6.7585697 0.73752117 0
2.1143985 6.758522 0.73418307 0
2.2234447 6.6469297 0.71367043 0
2.32885 6.653492 0.71044832 0
2.4429216 6.7583442 0.72149378 0
2.362745 5.6524348 0.70363653 0
2.3629227 5.4972425 0.67664319 0
2.3625402 5.2206421 0.75323743 0
2.3627043 5.0959334 0.72774059 0
2.3628569 4.9793267 0.70405096 0
2.3629994 4.8700151 0.68198907 0
2.3626413 4.6713881 0.75006491 0
2.3627751 4.5800471 0.72900641 0
2.3629603 4.4527287 0.69994903 0
2.3631313 4.3340883 0.67315996 0
2.5499597 6.7582974 0.71803868 0
2.620656 6.7583199 0.71597219 0
2.7258413 6.7582836 0.71319723 0
2.8302317 6.7582521 0.71075314 0
2.9337463 6.7582278 0.7087149 0
3.0366526 6.7582073 0.70699644 0
3.1389103 6.758194 0.70567226 0
3.2407365 6.7581859 0.70465976 0
3.3421319 6.758183 0.70403367 0
3.4432664 6.7581854 0.70371443 0
3.5441809 6.758194 0.70377725 0
3.6450021 6.7582073 0.70414501 0
3.7458103 6.7582273 0.70489407 0
3.8130808 6.7582426 0.70557213 0
3.9140642 6.7582703 0.7068572 0
4.0153117 6.7583046 0.7085281 0
4.1168547 6.7583437 0.71051025 0
4.218874 6.758389 0.71288592 0
4.3213601 6.75844 0.71558034 0
4.4245415 6.7584963 0.71867967 0
4.5283704 6.7585588 0.72210854 0
4.6331229 6.7586279 0.72595763 0
4.7387123 6.7587028 0.7301504 0
4.8097167 6.7587562 0.73317921 0
4.9172449 6.7588425 0.73808223 0
5.0258818 6.758934 0.74335343 0
5.1360426 6.7590342 0.74909878 0
5.2475395 6.75914 0.75523561 0
5.3228269 6.7592144 0.75959527 0
5.4373202 6.7593341 0.76655197 0
6.6578426 1.4273012 0.73042595 0
6.6578317 1.3597099 0.73436439 0
6.9593549 6.7581468 0.68492156 0
6.8132381 1.4651673 0.76452935 0
7.0608487 6.7582788 0.69277239 0
7.1644735 6.7584171 0.70093578 0
7.2703428 6.7585602 0.70942509 0
7.3785748 6.7587085 0.71825475 0
7.4125986 6.6646876 0.71285206 0
7.4126844 6.5324783 0.70144576 0
7.4127679 6.4046974 0.69056588 0
7.4130044 2.7659492 0.75845015 0
7.413022 2.710429 0.75700009 0
7.4130464 2.6276841 0.75514126 0
7.4130764 2.5181293 0.75318235 0
7.4131021 2.4093356 0.75183791 0
7.4131246 2.3011181 0.75110024 0
7.4131436 2.1932962 0.75096393 0
7.413156 2.1125791 0.75123608 0
7.413166 2.0319154 0.75188202 0
7.413177 1.9243053 0.75324285 0
7.4131837 1.816471 0.75520635 0
7.4131875 1.708234 0.75777835 0
7.4131889 1.5994134 0.76096743 0
7.413187 1.5173323 0.76375067 0
7.3965821 1.4649485 0.76242661 0
-0.062246993 2.4156752 0.83643115 0
0.42787728 2.4160883 0.84712112 0
2.3619645 5.6534667 0.84280938 0
2.3621719 5.49824 0.8105123 0
2.3623631 5.3543844 0.78074807 0
2.3620062 5.0968838 0.8499676 0
2.3621817 4.9802485 0.8223204 0
2.3623452 4.8709087 0.79657191 0
2.3624983 4.7681613 0.77253997 0
5.5534854 6.7594604 0.77393907 0
5.6321211 6.7595496 0.7791602 0
5.7117109 6.7596416 0.78461128 0
5.8331327 6.759789 0.79326415 0
5.9567266 6.759944 0.80241144 0
6.0406637 6.7600527 0.80885166 0
6.1258321 6.7601657 0.81555885 0
6.2122955 6.7602835 0.82254159 0
6.3001184 6.760406 0.82980943 0
6.3893714 6.7605333 0.83737206 0
6.5262933 6.7607336 0.84933233 0
6.6664538 6.7609444 0.86193746 0
6.7621908 6.7610927 0.8707912 0
6.6572037 1.4282281 0.8442086 0
6.6571903 1.3606405 0.84869051 0
6.8077331 1.467046 0.88233477 0
7.0772204 1.4661705 0.82610077 0
7.4117193 6.2827892 0.88126647 0
7.4118128 6.1630497 0.86819088 0
7.4119029 6.0469933 0.85569507 0
7.4119887 5.9344068 0.84374762 0
7.4120712 5.8250933 0.8323198 0
7.4121504 5.7188692 0.82138479 0
7.4122267 5.6155634 0.81091791 0
7.4123001 5.515017 0.80089593 0
7.4542007 5.4545393 0.80012876 0
7.4122205 2.7671008 0.89791465 0
7.41224 2.7115769 0.8961069 0
7.4122677 2.6288273 0.89377177 0
7.4123011 2.5192673 0.89127642 0
7.4123292 2.4104691 0.88951212 0
7.4123545 2.302248 0.88846928 0
7.412375 2.1944232 0.88814157 0
7.4123878 2.1137047 0.88834041 0
7.4123983 2.03304 0.88898343 0
7.4124093 1.9254297 0.89043421 0
7.4124155 1.8175958 0.89260024 0
7.4124179 1.7093601 0.8954885 0
7.4124165 1.6005418 0.89910865 0
7.4000745 1.4929085 0.90049618 0
7.4123464 1.1272128 0.92299068 0
2.0380428 6.7614202 0.91651732 0
2.1128969 6.7613592 0.91231787 0
2.2220068 6.6496868 0.88678104 0
2.3276627 6.6554828 0.8825506 0
2.4415429 6.7611284 0.89629513 0
2.3613946 5.4992924 0.94656003 0
2.3616142 5.3554001 0.91182703 0
2.3618178 5.2216239 0.87972283 0
2.548619 6.7610664 0.89190882 0
2.6193392 6.7610798 0.8892765 0
2.7245607 6.7610312 0.885728 0
2.8289859 6.7609892 0.8825866 0
2.9325337 6.7609549 0.87994498 0
3.0354726 6.7609262 0.87769681 0
3.1377618 6.7609057 0.87593359 0
3.2396193 6.760891 0.8745538 0
3.3410444 6.7608848 0.87364894 0
3.4422088 6.7608838 0.87312132 0
3.5431523 6.76089 0.87306309 0
3.6440017 6.7609029 0.87337953 0
3.7448378 6.7609234 0.87416404 0
3.8121266 6.7609396 0.87490636 0
3.9131372 6.7609701 0.87634885 0
4.0144119 6.7610083 0.87826484 0
4.1159816 6.7610521 0.88056266 0
4.2180271 6.7611036 0.88334298 0
4.32054 6.7611623 0.88651425 0
4.423748 6.7612276 0.89018166 0
4.5276027 6.761301 0.8942529 0
4.6323819 6.7613816 0.898839 0
4.7379975 6.7614698 0.90384585 0
4.8090205 6.7615318 0.90746987 0
4.9165754 6.7616334 0.91334641 0
5.0252395 6.7617426 0.91967356 0
5.1354289 6.7618608 0.92658103 0
5.246954 6.7619867 0.93396741 0
5.3222604 6.7620754 0.93922001 0
5.4367833 6.7622185 0.94760919 0
5.5529795 6.7623682 0.95652473 0
5.6316357 6.762475 0.96283078 0
5.7112465 6.7625856 0.96941793 0
6.8597622 6.7612472 0.87999922 0
6.9592609 6.7614064 0.88957584 0
7.0607882 6.7615724 0.89953613 0
7.1644483 6.7617455 0.90989625 0
7.2703538 6.7619247 0.92067337 0
7.0708356 1.4681995 0.95331979 0
7.378624 6.7621112 0.93188584 0
7.4114122 6.6664963 0.92432231 0
7.4115191 6.5342546 0.90929407 0
7.4116216 6.4064417 0.8949554 0
7.4112701 5.516572 0.98452395 0
7.4547076 5.4574647 0.98381174 0
-5.0886483 2.7662301 1.0187665 0
-5.0886273 2.6404247 1.0186737 0
-5.0886064 2.5148582 1.018801 0
-5.0901146 2.3895364 1.0193262 0
-5.0900974 2.2642698 1.0198931 0
-5.0900803 2.1390872 1.0206794 0
-5.090064 2.0139365 1.0216855 0
-5.0900502 1.8887671 1.0229118 0
-5.0900373 1.7635274 1.0243587 0
-5.0900249 1.6381662 1.0260274 0
-5.0900145 1.5126312 1.0279186 0
-5.0900049 1.3868712 1.0300338 0
-5.0899963 1.2608335 1.0323747 0
-0.076854996 2.4181433 0.97850531 0
2.361156 5.6545582 0.98424739 0
2.931304 6.7637205 1.053614 0
3.034276 6.7636843 1.0508282 0
3.1365974 6.7636561 1.0486194 0
3.2384861 6.7636356 1.0468669 0
3.339942 6.7636242 1.0456792 0
3.4411361 6.7636204 1.04494 0
3.5421088 6.7636251 1.0447592 0
3.642987 6.7636371 1.0450233 0
3.7438517 6.7636576 1.0458438 0
3.8448215 6.7639112 1.0471612 0
3.7775109 6.7638912 1.0462425 0
3.9122093 6.7639351 1.0483044 0
4.0135164 6.7639771 1.0504693 0
4.115118 6.7640276 1.0530876 0
4.2171955 6.7640858 1.0562789 0
4.3197403 6.7641525 1.0599341 0
4.388464 6.7642021 1.0626844 0
5.8327012 6.7627611 0.97988105 0
5.9563284 6.7629471 0.99094826 0
6.0402889 6.7630777 0.99874449 0
6.1254826 6.7632132 1.0068667 0
6.2119699 6.7633538 1.015326 0
6.2998185 6.7635007 1.0241332 0
6.3890972 6.7636533 1.0333009 0
6.5260606 6.7638941 1.0478051 0
6.6662645 6.7641487 1.0630971 0
6.7620316 6.764327 1.0738418 0
7.4105787 6.2845225 1.084594 0
7.4106903 6.1647539 1.068323 0
7.4107971 6.0486693 1.0527706 0
7.4108996 5.9360566 1.0378976 0
7.4109983 5.8267179 1.0236685 0
7.4110928 5.7204695 1.0100501 0
7.4111834 5.6171408 0.99701142 0
7.4114251 2.7682712 1.0396495 0
7.411447 2.7127438 1.0374782 0
7.4114771 2.6299896 1.0346589 0
7.4115133 2.5204237 1.0316184 0
7.4115443 2.4116206 1.0294272 0
7.4115705 2.303396 1.0280743 0
7.4115925 2.1955686 1.0275517 0
7.4116058 2.1148486 1.0276762 0
7.4116163 2.034183 1.0283163 0
7.4116263 1.9265723 1.0298579 0
7.4116316 1.8187391 1.0322299 0
7.411633 1.710505 1.0354395 0
7.4116297 1.601689 1.0394976 0
7.395927 1.4945859 1.0400409 0
7.41154 1.128381 1.066592 0
-5.0899863 -0.1594975 1.0736991 0
-5.089994 -0.29320621 1.0789589 0
-5.0900021 -0.42794847 1.0844879 0
2.0364902 6.7643127 1.0980678 0
2.1113744 6.7642369 1.092994 0
2.2205484 6.652483 1.0623609 0
2.3264589 6.6575012 1.0570498 0
2.4401443 6.7639527 1.0735884 0
2.5472589 6.763875 1.0682571 0
2.6180043 6.7638798 1.0650506 0
2.7232618 6.7638187 1.060717 0
2.8277221 6.7637653 1.056868 0
4.4574957 6.7642546 1.0656726 0
4.5268669 6.7643118 1.068902 0
4.6316781 6.7644053 1.0742364 0
4.7373261 6.7645059 1.08007 0
4.8083706 6.7645793 1.0842984 0
4.9159584 6.7646976 1.0911633 0
5.0246563 6.7648239 1.0985625 0
5.1348791 6.7649617 1.1066499 0
5.246439 6.7651086 1.1153049 0
5.3217697 6.7652125 1.1214641 0
5.4363284 6.765378 1.1313077 0
5.5525613 6.7655544 1.1417751 0
5.6312423 6.7656789 1.1491829 0
5.7108793 6.7658091 1.1569237 0
5.8323731 6.7660141 1.1692247 0
6.8596344 6.7645121 1.0850192 0
6.959166 6.7647047 1.0966468 0
7.0607262 6.764905 1.1087428 0
7.1644225 6.7651129 1.1213272 0
7.2703648 6.7653289 1.1344208 0
7.3786731 6.7655544 1.1480459 0
7.4102135 6.6683254 1.1381516 0
7.4103403 6.5360503 1.1194611 0
7.4104624 6.4082055 1.1016248 0
7.4101095 5.6187239 1.1856489 0
7.4102111 5.5181341 1.1706625 0
7.4554944 5.4606781 1.1702464 0
2.2189951 6.655551 1.2409618 0
2.3251913 6.6597028 1.2344714 0
2.4745555 6.7670169 1.2517327 0
2.5458226 6.7669573 1.2476364 0
2.6165967 6.7669525 1.2438456 0
2.7218962 6.7668791 1.2387129 0
2.8263967 6.7668142 1.2341442 0
2.9300184 6.7667603 1.230267 0
3.0330288 6.7667155 1.2269341 0
3.1353881 6.7666807 1.2242721 0
3.2373135 6.766655 1.2221401 0
3.3388052 6.7666392 1.2206647 0
3.4400349 6.7666321 1.2197106 0
3.5410419 6.7666349 1.2194047 0
3.6419547 6.7666459 1.2196161 0
3.7764926 6.7666769 1.2208453 0
3.7092128 6.7666593 1.2201014 0
3.8101823 6.7666874 1.2213475 0
3.9112537 6.7667232 1.2231126 0
4.012588 6.7667694 1.2255306 0
4.1142178 6.7668242 1.2284747 0
4.2163224 6.7668905 1.2320839 0
4.3188949 6.7669644 1.2362317 0
4.4221616 6.7670498 1.2410626 0
4.5260758 6.7671437 1.2464495 0
4.6309152 6.7672491 1.2525446 0
4.7365904 6.7673635 1.2592189 0
4.8076534 6.767447 1.264062 0
5.9560418 6.7662311 1.1822413 0
6.040031 6.7663841 1.1914145 0
6.1252522 6.7665434 1.2009737 0
6.2117701 6.7667089 1.2109319 0
6.2996492 6.7668819 1.2213026 0
6.3889594 6.7670608 1.2321 0
6.5259728 6.767344 1.2491875 0
6.6662273 6.7676425 1.2672076 0
7.4095345 6.1664619 1.2711906 0
7.4096589 6.0503502 1.2525399 0
7.4097786 5.9377112 1.2347015 0
7.4098935 5.8283477 1.2176329 0
7.4100037 5.7220759 1.2012943 0
-5.0903997 2.768785 1.3309778 0
-5.0903754 2.6429782 1.3305587 0
-5.090354 2.5174108 1.3304241 0
-5.0918612 2.3920891 1.3308063 0
-5.0918431 2.2668228 1.3312393 0
-5.0918255 2.1416407 1.3319559 0
-5.0918102 2.0164912 1.3329558 0
-5.0917964 1.8913236 1.3342397 0
-5.0917835 1.7660861 1.3358084 0
-5.0917726 1.6407275 1.3376623 0
-5.0917635 1.5151958 1.3398032 0
-5.0917559 1.3894401 1.3422325 0
-5.0917487 1.2634068 1.344952 0
-5.0917444 1.137044 1.347964 0
-5.091742 1.0102979 1.3512709 0
-5.0917406 0.88311517 1.3548753 0
2.0348344 6.767477 1.2827413 0
2.1097519 6.7673879 1.2767781 0
2.4027724 6.7670813 1.2561262 0
4.9152694 6.767581 1.2719322 0
5.0239954 6.7677245 1.2804221 0
5.1342478 6.7678814 1.2897092 0
5.2458367 6.7680483 1.2996547 0
5.321187 6.7681675 1.3067362 0
5.4357767 6.7683568 1.3180591 0
5.5520406 6.7685585 1.3301051 0
5.6307435 6.7687006 1.3386333 0
5.7104025 6.7688484 1.3475473 0
5.8319306 6.7690849 1.3617178 0
6.7620311 6.7678518 1.2798727 0
6.8596711 6.7680697 1.2930499 0
6.9592409 6.7682962 1.3067601 0
7.060842 6.7685313 1.3210253 0
7.1645803 6.7687764 1.3358682 0
7.270566 6.769031 1.3513143 0
7.3789201 6.7692962 1.3673896 0
7.408977 6.6701541 1.3549033 0
7.4091253 6.5378461 1.3325003 0
7.4092679 6.4099703 1.311119 0
7.4094038 6.2862582 1.2907004 0
7.4090338 5.620348 1.3773624 0
7.4091496 5.5197353 1.359836 0
7.4756498 5.4323459 1.3585755 0
7.5488091 5.351058 1.3602827 0
-5.0917883 -0.15683889 1.394877 0
-5.0918026 -0.29053617 1.4013433 0
-5.0918169 -0.4252665 1.4081548 0
5.9556336 6.7693338 1.3767173 0
6.0396466 6.7695084 1.3872908 0
6.1248937 6.769691 1.398312 0
6.2114367 6.7698812 1.409795 0
6.2993422 6.7700787 1.421756 0
6.38868 6.7702842 1.434211 0
6.5257359 6.7706099 1.4539263 0
6.6660357 6.7709522 1.4747221 0
7.4083772 6.1682167 1.4773674 0
7.4085197 6.0520768 1.4555674 0
7.4086561 5.9394102 1.434715 0
7.4087873 5.8300209 1.4147604 0
7.4089127 5.7237239 1.3956572 0
6.7618699 6.771193 1.4893404 0
6.8595428 6.7714434 1.504552 0
6.959146 6.7717032 1.5203812 0
7.0607824 6.7719741 1.5368526 0
7.1645565 6.7722559 1.5539936 0
7.2705812 6.7725487 1.5718328 0
7.4077401 6.6720376 1.5751916 0
7.4079108 6.5396953 1.5490154 0
7.4080729 6.411787 1.5240307 0
7.4082289 6.288043 1.500169 0
-5.0935903 2.1442227 1.6466882 0
-5.093575 2.0190744 1.6476821 0
7.3789754 6.7728534 1.5904009 0
-5.0921707 2.771368 1.6466554 0
-5.092145 2.64556 1.6459062 0
-5.0921211 2.5199919 1.6455072 0
-5.0936275 2.39467 1.6457443 0
-5.0936089 2.2694039 1.6460423 0
-5.0935612 1.8939083 1.6490242 0
-5.0935497 1.7686732 1.6507156 0
-5.0935397 1.6433175 1.6527573 0
-5.0935321 1.5177894 1.6551505 0
-5.0935259 1.3920372 1.6578972 0
-5.0935216 1.2660083 1.6609997 0
-5.0935192 1.1396507 1.6644604 0
-5.0935197 1.0129101 1.6682824 0
-5.0935216 0.88573325 1.6724689 0
-5.0935249 0.75806558 1.6770236 0
-5.0935321 0.6298511 1.6819509 0
-5.0936093 -0.15415072 1.7196205 0
-5.0936298 -0.28783607 1.727307 0
-5.0936522 -0.42255449 1.735415 0
-5.0939646 2.7739866 1.9666417 0
-5.0939369 2.6481771 1.9655581 0
-5.0939116 2.5226078 1.9648904 0
-5.0954189 2.3972862 1.9649808 0
-5.0953979 2.2720201 1.9651417 0
-5.0953789 2.1468399 1.9657161 0
-5.0953641 2.0216928 1.9667035 0
-5.0953507 1.8965285 1.9681051 0
-5.0953398 1.7712955 1.9699211 0
-5.0953307 1.6459429 1.9721524 0
-5.095325 1.5204179 1.9748015 0
-5.0953207 1.39467 1.9778701 0
-5.0953188 1.2686455 1.9813608 0
-5.0953183 1.1422927 1.9852766 0
-5.0953221 1.0155581 1.9896206 0
-5.0953274 0.88838732 1.9943966 0
-5.0953341 0.76072657 1.9996097 0
-5.095345 0.63251936 2.0052643 0
-5.0953565 0.50370991 2.0113654 0
-5.0953708 0.37424076 2.0179193 0
-5.0953884 0.24405289 2.0249324 0
-5.0954084 0.11308718 2.0324106 0
-5.0954309 -0.018718243 2.0403628 0
-5.0954547 -0.1514256 2.0487962 0
-5.0954833 -0.28509951 2.057719 0
-5.0955129 -0.41980553 2.0671411 0
5.2972469 6.736022 -0.37062958 0
5.2038002 6.7433543 -0.36870989 0
5.3973961 6.6612515 -0.36898163 0
5.5607109 6.5325041 -0.36619836 0
5.4960098 6.5847015 -0.3673178 0
5.687717 6.4255452 -0.36393756 0
5.6246166 6.4794474 -0.36507154 0
5.7807312 6.3430314 -0.362223 0
5.9318638 6.2017298 -0.35933527 0
5.8720851 6.2588887 -0.36049536 0
6.0488482 6.0850792 -0.35699758 0
5.9907875 6.1437893 -0.35816929 0
6.1060352 6.0256133 -0.35582042 0
6.1900482 5.9349365 -0.35404435 0
6.325882 5.7804585 -0.35106194 0
6.2722731 5.8428144 -0.35225856 0
6.3785772 5.7174134 -0.34986103 0
6.4303493 5.6536927 -0.34865612 0
3.6380141 5.0305858 -0.35646877 0
3.5475335 5.0750031 -0.35763183 0
3.4788365 5.1067214 -0.35848659 0
3.8364279 4.9216022 -0.3537553 0
3.7710919 4.9592609 -0.3546738 0
3.7050061 4.995698 -0.3555795 0
4.0061989 4.8144116 -0.35123724 0
3.9432425 4.8556376 -0.35219184 0
3.8794718 4.8956919 -0.35313472 0
4.1291566 4.7279425 -0.34928909 0
4.0681086 4.7717433 -0.35026854 0
4.2285361 4.6519828 -0.34762898 0
4.1692691 4.6979966 -0.34862906 0
4.4002666 4.5070238 -0.34456742 0
4.3440561 4.5564742 -0.34559771 0
4.2868843 4.6048899 -0.34661916 0
4.5092354 4.4045949 -0.34247756 0
4.4552517 4.456305 -0.34352651 0
4.561944 4.3516726 -0.34141916 0
4.6471815 4.2611222 -0.33963761 0
4.745183 4.1488476 -0.33747426 0
3.1322889 4.1528702 -0.34711227 0
4.8231888 4.0524058 -0.33565271 0
3.3401747 4.047194 -0.34438908 0
3.2454121 4.0981503 -0.34566969 0
4.9119978 3.9331992 -0.33344632 0
4.8683081 3.993299 -0.33455229 0
3.5221539 3.9331279 -0.34170166 0
3.4475086 3.9824235 -0.34283933 0
3.386646 4.0201731 -0.34373254 0
4.9683175 3.8517888 -0.3319653 0
3.6233444 3.8596001 -0.34006509 0
3.566051 3.902308 -0.3410069 0
5.0352793 3.74789 -0.33010432 0
3.7476616 3.7579784 -0.33789548 0
3.6795757 3.8155742 -0.33911103 0
5.1110339 3.6205583 -0.3278611 0
5.0864544 3.6633737 -0.32861009 0
3.8905046 3.6239173 -0.33515894 0
3.8397679 3.6738853 -0.33616403 0
2.9009213 3.6387632 -0.34124663 0
5.146677 3.5556967 -0.32673597 0
3.9872828 3.5196555 -0.33311576 0
3.9395227 3.5723422 -0.3341414 0
3.0994558 3.5383027 -0.33865243 0
3.0263221 3.5784264 -0.33965197 0
2.9516559 3.6157651 -0.34062132 0
5.2139387 3.4240007 -0.32448173 0
5.1810861 3.4902179 -0.32560942 0
4.0332417 3.4654641 -0.33207953 0
3.2397285 3.4484808 -0.3365542 0
3.1588645 3.5023177 -0.33779281 0
5.2556462 3.3347771 -0.32297742 0
4.1206541 3.3536108 -0.32998502 0
4.0778866 3.4102364 -0.3310366 0
3.3929567 3.3295739 -0.33396941 0
3.3287063 3.3822858 -0.33509344 0
5.294817 3.2444949 -0.3214733 0
4.1918554 3.2520049 -0.32813117 0
4.1620545 3.296026 -0.32892817 0
3.494525 3.2356529 -0.33204338 0
3.444536 3.2834404 -0.33301336 0
2.9059606 3.2355123 -0.33553776 0
2.8355474 3.2720809 -0.33647102 0
2.7635794 3.3056216 -0.33737087 0
5.3314266 3.1532247 -0.31997049 0
4.2484827 3.1621265 -0.32652903 0
3.5890455 3.1348996 -0.33006305 0
3.5426345 3.186043 -0.33105892 0
3.0309339 3.1578751 -0.333702 0
2.9549224 3.2070465 -0.33484602 0
5.3893471 2.9913633 -0.31734693 0
5.3654528 3.0610375 -0.31847009 0
4.3099985 3.0546739 -0.32465038 0
3.6843905 3.0168407 -0.32783401 0
3.6420345 3.0712681 -0.32885212 0
3.1911726 3.0327721 -0.33098829 0
3.1305909 3.0835636 -0.3320635 0
2.7201879 3.0501087 -0.3340303 0
2.6680632 3.0739346 -0.33467552 0
-3.959645 3.1794813 -0.37553367 0
4.3583021 2.9602871 -0.3230342 0
3.7243657 2.9607065 -0.32680598 0
3.2882302 2.9384229 -0.32908303 0
3.2404971 2.9863908 -0.33004209 0
2.9014547 2.9447842 -0.33147022 0
2.8210526 2.9959636 -0.3326686 0
2.7629201 3.0288248 -0.33347675 0
-3.9856696 3.0475609 -0.37383044 0
4.402544 2.8640289 -0.32141581 0
3.7916336 2.8566222 -0.32494056 0
3.7627177 2.903491 -0.3257724 0
3.3767819 2.8362827 -0.32711855 0
3.3333638 2.8880739 -0.32810584 0
3.0143046 2.857362 -0.32956874 0
2.95538 2.9055736 -0.3305977 0
2.7082613 2.8485334 -0.33125734 0
2.6276016 2.8894708 -0.33231202 0
-4.0012259 2.9592967 -0.37267986 0
4.4426575 2.7660713 -0.31979799 0
3.8390732 2.7728167 -0.32347858 0
3.4238837 2.7731395 -0.32594949 0
3.1105905 2.7655342 -0.32770351 0
3.0637736 2.8128021 -0.32864729 0
2.82548 2.7728071 -0.32949609 0
2.7578568 2.8193681 -0.33055261 0
-4.0154343 2.8708212 -0.37151828 0
4.4842548 2.6499033 -0.3179149 0
4.4672313 2.6999602 -0.31872097 0
3.8940651 2.6620121 -0.32159141 0
3.8706632 2.7117529 -0.32243091 0
3.4979672 2.6604104 -0.32392183 0
3.4685388 2.7082946 -0.32477105 0
3.197155 2.6647158 -0.32576948 0
3.1553223 2.7163384 -0.32674497 0
2.9797297 2.6381569 -0.32668588 0
2.926749 2.6894674 -0.32772234 0
-4.0282907 2.7821567 -0.37034595 0
4.5102606 2.565758 -0.31657538 0
3.9316885 2.5735483 -0.32012209 0
3.5467699 2.5718904 -0.32238534 0
3.2832975 2.5398936 -0.32349986 0
3.2473717 2.5956852 -0.32449901 0
3.028358 2.5827923 -0.32561818 0
-1.4134641 2.6218657 -0.3525553 0
-4.0397944 2.6933243 -0.3691633 0
4.537653 2.4637566 -0.31497619 0
3.9780607 2.4444153 -0.31802806 0
3.9606838 2.4964693 -0.31886438 0
3.5943384 2.4702628 -0.32067153 0
3.3249567 2.4655209 -0.32220507 0
3.1064818 2.4778836 -0.3236782 0
-1.429024 2.5449138 -0.35156402 0
-4.049942 2.6043463 -0.3679705 0
4.5676012 2.3262696 -0.31286207 0
4.5572767 2.3780091 -0.31365207 0
4.0011616 2.3654571 -0.31677887 0
3.6345711 2.3656156 -0.31895882 0
3.3771958 2.3541496 -0.32032627 0
3.3584828 2.3976099 -0.32104951 0
3.1798244 2.3504999 -0.32145026 0
3.1534691 2.4012492 -0.32232085 0
1.1321344 2.3745363 -0.33221975 0
0.92626595 2.3734269 -0.33269423 0
0.68232834 2.3812468 -0.32907352 0
0.63703418 2.3731821 -0.33687219 0
0.28116763 2.3795455 -0.3339622 0
-0.35525894 2.4090037 -0.34327134 0
-1.442672 2.4676127 -0.35055652 0
-4.058733 2.5152445 -0.36676794 0
4.5794249 2.2569561 -0.31181568 0
4.0269709 2.2589242 -0.31512526 0
3.6704078 2.2477086 -0.31708544 0
3.6585376 2.2909205 -0.31776449 0
3.4067492 2.2743375 -0.31902671 0
3.2129197 2.2758803 -0.32020372 0
1.0908947 2.3022466 -0.33316505 0
0.88780797 2.3057873 -0.33443338 0
0.61916709 2.3183131 -0.3362056 0
0.23150933 2.3198206 -0.33852974 0
-0.37002397 2.3367116 -0.34234098 0
-1.4583106 2.3641486 -0.34919232 0
-4.0692034 2.381398 -0.3649452 0
4.593749 2.1525176 -0.31025979 0
4.0447044 2.1647184 -0.31369323 0
3.6879492 2.171319 -0.31590545 0
3.4363263 2.1746929 -0.31744775 0
3.2479806 2.1758287 -0.3185876 0
1.0657036 2.2405353 -0.33244598 0
1.0497491 2.1931517 -0.33187377 0
0.86872876 2.2508624 -0.3337732 0
0.85506129 2.2043757 -0.33319968 0
0.59184194 2.218137 -0.33495718 0
0.21007264 2.2226615 -0.33728877 0
-0.38843799 2.2276061 -0.34091386 0
-1.4708681 2.2602918 -0.34780431 0
-4.0769548 2.2474124 -0.36310431 0
4.6036725 2.047627 -0.30872369 0
4.0575504 2.0697765 -0.31227985 0
3.7067962 2.0610304 -0.31424034 0
3.4640474 2.0358129 -0.31532726 0
3.4546919 2.0916939 -0.3161698 0
3.2739081 2.0731053 -0.31698808 0
1.0255889 2.1047702 -0.33077326 0
0.83272028 2.1101201 -0.33200505 0
0.5708878 2.1164539 -0.33364964 0
0.19387054 2.1245143 -0.33600283 0
-0.40202403 2.1178241 -0.33944854 0
-1.4803348 2.1561375 -0.3463937 0
-4.0803108 2.1580322 -0.36186558 0
4.6091862 1.9424658 -0.30721 0
4.0666151 1.9607208 -0.31069016 0
3.7171845 1.9609171 -0.31276873 0
3.4715657 1.9701686 -0.31435812 0
3.289238 1.976568 -0.31553847 0
1.0072304 2.0065429 -0.32949975 0
0.81573141 2.0049589 -0.33062497 0
0.55688322 2.0136073 -0.33228445 0
0.18246543 2.025718 -0.33467928 0
-0.40975356 2.0259862 -0.33820108 0
-1.4867053 2.05178 -0.34496197 0
-4.0823069 2.0686369 -0.36061847 0
4.6102858 1.8372141 -0.30572119 0
4.0695362 1.8513825 -0.30913302 0
3.7209649 1.8603864 -0.3113305 0
3.4770389 1.8665529 -0.31286645 0
3.2964048 1.8709837 -0.31400999 0
0.99746859 1.9071176 -0.32815838 0
0.80772531 1.9084675 -0.3293137 0
0.54938698 1.9101123 -0.33087149 0
0.1763643 1.9264836 -0.333318 0
-0.41388178 1.9339446 -0.33692941 0
-1.4899771 1.9473147 -0.34351024 0
-4.0829458 1.9792484 -0.35936341 0
4.6085672 1.7670724 -0.30474362 0
4.0676937 1.769387 -0.30798927 0
3.7190738 1.7710079 -0.31008306 0
3.4751306 1.772276 -0.31155005 0
3.2944643 1.7733524 -0.31263846 0
0.9963696 1.8072535 -0.3267594 0
0.8067323 1.8116817 -0.32795656 0
0.54853022 1.8179044 -0.32957804 0
0.17546761 1.8129107 -0.33172387 0
-0.41451025 1.8234286 -0.33537677 0
-1.4901507 1.8428367 -0.34203991 0
-4.0822268 1.889888 -0.35810071 0
4.6023226 1.6620706 -0.30330199 0
4.0612969 1.6739566 -0.30668333 0
4.055603 1.6196052 -0.30595174 0
3.7110524 1.6707968 -0.30871946 0
3.4654775 1.6690416 -0.31015354 0
3.2831881 1.6682093 -0.31122473 0
1.0039327 1.7077116 -0.32531363 0
0.81275022 1.7151165 -0.32656088 0
0.55834889 1.6684796 -0.32741538 0
0.55303144 1.7258363 -0.32825473 0
0.17999542 1.7136689 -0.33029938 0
-0.41143274 1.7314126 -0.33406261 0
-1.4872293 1.7384405 -0.34055239 0
-4.0801535 1.8005776 -0.3568306 0
4.5916901 1.5574579 -0.30189189 0
4.0459509 1.5519962 -0.30505693 0
3.6964688 1.571358 -0.30740571 0
3.4570403 1.6131121 -0.30941606 0
3.4457214 1.5577022 -0.30870292 0
3.2661386 1.5803745 -0.31008905 0
3.2541413 1.5330565 -0.30949393 0
1.0200883 1.6092483 -0.32383201 0
0.82754385 1.6097848 -0.32498968 0
0.5661577 1.6114281 -0.32656553 0
0.18981528 1.6148565 -0.32884949 0
-0.40476298 1.6396251 -0.33273038 0
-1.4812195 1.6342202 -0.33904892 0
-4.076726 1.7113385 -0.35555351 0
4.5795937 1.4706899 -0.30074179 0
4.0317211 1.4713035 -0.30400506 0
3.6728959 1.4738029 -0.30556819 0
3.4248579 1.4754996 -0.30766925 0
3.2363629 1.4789982 -0.30864 0
1.0598162 1.4650958 -0.32156754 0
1.0422256 1.5205436 -0.32245228 0
0.85787082 1.4779488 -0.32295287 0
0.8454361 1.5246464 -0.32368436 0
0.58515263 1.5096011 -0.32501867 0
0.20441568 1.5166832 -0.32738018 0
-0.39246798 1.5299315 -0.3311125 0
-1.472131 1.5302706 -0.33753103 0
-4.0719471 1.6221926 -0.35426974 0
1.0838302 1.4031429 -0.32055318 0
0.88168502 1.4044408 -0.32177621 0
0.66944814 1.3910122 -0.31300393 0
0.62442708 1.4368707 -0.31972229 0
0.2178936 1.4471058 -0.32632026 0
-0.33798838 1.4271733 -0.32477015 0
-0.38178015 1.4571496 -0.33002406 0
-1.271873 1.4234533 -0.31908205 0
-1.463397 1.4525284 -0.3363843 0
-4.0620842 1.4887128 -0.35233134 0
1.1538153 1.2619532 -0.31815085 0
1.1259878 1.3129294 -0.31903335 0
0.9206655 1.3056953 -0.32015401 0
0.66693807 1.3071885 -0.3175025 0
1.1801348 1.219727 -0.31740043 0
0.97206819 1.2020231 -0.31838864 0
0.94500041 1.2531643 -0.31926966 0
0.68543017 1.2043122 -0.32012364 0
1.0215875 1.1193626 -0.31693035 0
0.75780797 1.0609206 -0.31767431 0
0.73038185 1.1113075 -0.31854686 0
0.32297933 1.1096658 -0.32094386 0
0.79357076 1.0021521 -0.31663427 0
0.36924303 1.0065106 -0.31921634 0
0.34524286 1.0576838 -0.32007957 0
0.41464365 0.91871166 -0.31771016 0
-0.22686791 0.91083425 -0.32141015 0
0.47173893 0.82135493 -0.31599993 0
-0.1904552 0.82680684 -0.32001042 0
0.51001418 0.76214701 -0.31493875 0
-0.13466883 0.71148717 -0.31805503 0
-0.15939236 0.7604956 -0.31889209 0
-0.091129303 0.63109219 -0.31666422 0
-0.025384426 0.52141297 -0.31472903 0
-1.2161322 0.52581429 -0.32186466 0
0.024542809 0.44500357 -0.3133564 0
-1.1746466 0.43082038 -0.32028043 0
-1.1304209 0.33715573 -0.31869861 0
-1.0835018 0.24489999 -0.31712067 0
-1.0339355 0.154131 -0.31554791 0
-0.9547348 0.020931795 -0.31320164 0
-0.99513435 0.087025464 -0.31437239 0
-0.89877677 -0.065790735 -0.31164792 0
-0.85526514 -0.12974727 -0.31048876 0
-3.5997524 -0.35458025 -0.32362604 0
-3.5641553 -0.43533194 -0.32227734 0
-3.5273762 -0.51549381 -0.32092997 0
-3.4503188 -0.67397755 -0.31824026 0
-3.4894266 -0.59504819 -0.31958416 0
-3.4100621 -0.7522651 -0.31689864 0
-3.3686688 -0.82989371 -0.31555948 0
-3.3261521 -0.90684676 -0.31422323 0
-3.2601573 -1.0208843 -0.31222519 0
-3.1919761 -1.1334901 -0.31023434 0
-3.1450846 -1.2075795 -0.3089124 0
-3.048131 -1.3534783 -0.30628175 0
-3.097132 -1.2809138 -0.30759475 0
-2.9980953 -1.4252578 -0.30497366 0
-2.9470389 -1.4962375 -0.30367076 0
-14.772202 -8.5423393 -0.27471903 0
-14.58153 -8.7580147 -0.27054566 0
-14.38794 -8.9702225 -0.26640379 0
5.1071634 6.7429948 -0.36633158 0
5.0121908 6.7426405 -0.36405513 0
4.9188018 6.7422915 -0.36187702 0
4.7816963 6.7417774 -0.35879838 0
4.6473885 6.7412715 -0.35590076 0
4.5596027 6.740941 -0.354085 0
4.473052 6.740613 -0.35235295 0
4.3876762 6.7402887 -0.35070217 0
4.3034153 6.7399683 -0.34913039 0
4.1791201 6.7394938 -0.34692538 0
6.4811907 5.5893102 -0.3474474 0
6.5310941 5.5242791 -0.34623513 0
6.6280575 5.3923268 -0.34380081 0
6.5800519 5.4586139 -0.34501952 0
6.6751051 5.3254337 -0.34257931 0
6.743741 5.2239122 -0.34074187 0
6.8104277 5.1212463 -0.33889988 0
6.8746529 5.0172005 -0.33705312 0
6.9368925 4.9120932 -0.33520317 0
7.0162048 4.7700849 -0.33273214 0
6.9770517 4.8413367 -0.33396813 0
7.0543461 4.6983514 -0.33149534 0
7.0914707 4.6261492 -0.33025795 0
7.145113 4.5169468 -0.32840142 0
7.1966982 4.4068789 -0.32654491 0
7.2297106 4.3329477 -0.32530764 0
7.2771506 4.221262 -0.32345295 0
7.3225026 4.1088247 -0.32160014 0
7.3513393 4.0333891 -0.32036644 0
7.4058514 3.8815093 -0.3179037 0
7.3791227 3.9576123 -0.31913424 0
7.4224024 3.8017015 -0.31614822 0
7.4227409 3.7165008 -0.3135362 0
7.4230766 3.6321535 -0.31101003 0
7.4235744 3.5072236 -0.30738693 0
7.4240675 3.3837729 -0.30392465 0
7.4243922 3.3023865 -0.30172044 0
7.424716 3.2216341 -0.29959181 0
7.4251957 3.1016734 -0.29654589 0
7.4256735 2.982784 -0.29364297 0
7.4259887 2.9041765 -0.29180059 0
5.4116058 2.9211943 -0.31622651 0
7.4263034 2.8260119 -0.29002616 0
5.4390903 2.8270285 -0.31473711 0
7.4267726 2.7095633 -0.28749716 0
5.4639292 2.7321973 -0.31325406 0
7.4272394 2.5938263 -0.28509808 0
5.4861097 2.6367726 -0.31177846 0
7.4275494 2.5170867 -0.28358334 0
5.5056181 2.5408273 -0.31031138 0
7.4280128 2.4025047 -0.28143552 0
5.5224466 2.4444337 -0.30885392 0
7.4284749 2.2883692 -0.27940965 0
5.5365858 2.3476641 -0.30740711 0
1.2861459 2.3845885 -0.26669922 0
1.2156479 2.3842063 -0.27340683 0
1.1151905 2.3838091 -0.27230459 0
1.0144041 2.3833208 -0.27782884 0
0.92978096 2.3832335 -0.25960496 0
0.8290273 2.3825891 -0.27623159 0
0.72355616 2.3820448 -0.28439012 0
0.6146065 2.3820364 -0.25357324 0
0.54177237 2.3816004 -0.26345888 0
0.41923583 2.3808656 -0.28019661 0
0.2806741 2.3805242 -0.26444036 0
0.17584133 2.3799186 -0.27712747 0
0.059573889 2.379246 -0.29125297 0
-0.070481777 2.3790643 -0.26662117 0
7.4287829 2.2125235 -0.27813905 0
5.5480299 2.2505915 -0.30597207 0
7.429244 2.0990264 -0.276351 0
5.5567741 2.1532879 -0.30454984 0
7.4297056 1.9857231 -0.27467924 0
5.5639896 2.0314467 -0.30279109 0
5.5616436 2.0802059 -0.30349171 0
7.4300127 1.9102647 -0.27364144 0
5.5661564 1.9582787 -0.3017478 0
7.4304748 1.7971003 -0.27219814 0
5.566391 1.8363374 -0.30002916 0
7.4309797 1.7215956 -0.27131104 0
5.5636539 1.7388459 -0.29867244 0
7.4314451 1.6082776 -0.27006423 0
5.5584488 1.6415024 -0.2973325 0
5.5547256 1.5929146 -0.29667032 0
7.4317555 1.5326028 -0.26930723 0
5.5478001 1.5201651 -0.29568696 0
7.396646 1.4593887 -0.26688221 0
6.6764631 1.4145018 -0.23101461 0
5.5076618 1.4513017 -0.29204857 0
5.1458607 1.4502575 -0.2617037 0
4.8536015 1.4494162 -0.23724021 0
4.612462 1.44873 -0.21710025 0
4.4108648 1.4470181 -0.28095773 0
4.2384281 1.4466109 -0.26064864 0
4.0897675 1.4462591 -0.24318942 0
3.9605091 1.4454898 -0.2608723 0
3.8465638 1.4452467 -0.24559936 0
3.7155285 1.4448366 -0.23729181 0
3.5745914 1.4439211 -0.26199821 0
3.5012441 1.4437982 -0.2497977 0
3.3981581 1.4434274 -0.2466753 0
3.292475 1.4428296 -0.25892594 0
3.1928861 1.4425343 -0.25144762 0
3.1190643 1.4422343 -0.25166941 0
0.66911626 1.391683 -0.25703272 0
0.586411 1.4320029 -0.24904513 0
0.45226979 1.4313245 -0.25846115 0
0.33544719 1.4306183 -0.2748186 0
0.20247567 1.4303159 -0.25789735 0
0.049455881 1.4294269 -0.27677673 0
-0.12829995 1.428972 -0.25774708 0
-0.3375783 1.4284359 -0.23538633 0
-0.58795381 1.4271014 -0.25776559 0
-0.89270377 1.4254762 -0.28506023 0
-1.755513 1.4228207 -0.22442493 0
-2.397223 1.4197109 -0.25976104 0
0.66942441 1.3210112 -0.25953224 0
-3.2878201 1.4153944 -0.30886087 0
0.88023841 0.97822368 -0.27662987 0
7.381474 6.7113371 -0.1840056 0
7.2057562 6.7541547 -0.18336545 0
7.0627279 6.753592 -0.1819952 0
6.9237623 6.7530437 -0.18068834 0
6.7886343 6.7525101 -0.17944169 0
6.6571341 6.7519908 -0.17825232 0
6.5290656 6.7514849 -0.17711751 0
6.4042454 6.7509913 -0.17603466 0
6.2825027 6.7505097 -0.17500144 0
6.1636767 6.7500391 -0.17401563 0
6.0476179 6.7495799 -0.17307514 0
5.9341831 6.7491302 -0.17217807 0
5.8232403 6.7486901 -0.1713226 0
5.714664 6.7482586 -0.17050704 0
5.6083364 6.7478361 -0.1697298 0
5.5041466 6.7474222 -0.16898945 0
5.401988 6.747016 -0.16828452 0
5.3017626 6.7466168 -0.16761376 0
5.2033749 6.7462254 -0.16697595 0
7.4104061 6.531611 -0.17985973 0
7.4109411 6.3986955 -0.17661944 0
7.4114628 6.2690139 -0.17348258 0
7.411972 6.1423988 -0.17044416 0
7.4124703 6.018693 -0.16749957 0
7.4129567 5.8977475 -0.16464441 0
7.413434 5.7794223 -0.16187461 0
7.4139004 5.663588 -0.15918636 0
7.4143572 5.5501199 -0.15657601 0
7.4148059 5.4389009 -0.15404019 0
7.4152455 5.3298211 -0.1515757 0
7.4156775 5.2227755 -0.14917952 0
7.4161015 5.1176643 -0.14684881 0
7.4165182 5.0143952 -0.1445809 0
7.4169278 4.9128785 -0.14237325 0
7.4173317 4.8130283 -0.14022344 0
7.4177279 4.7147655 -0.13812923 0
7.4181194 4.618012 -0.13608849 0
7.4185042 4.5226951 -0.13409916 0
7.4188848 4.4287448 -0.13215929 0
7.4192591 4.3360939 -0.1302671 0
7.4196291 4.244679 -0.1284208 0
7.4199944 4.1544385 -0.12661879 0
-5.0771856 3.4810445 -0.18390271 0
-5.0767441 3.3724291 -0.18208875 0
-5.0763049 3.2644825 -0.18031229 0
-5.0758681 3.1571546 -0.1785723 0
-5.0754337 3.0503967 -0.17686781 0
-5.0750008 2.9441607 -0.17519781 0
-5.0745697 2.8383994 -0.17356136 0
-5.0741405 2.7330673 -0.17195763 0
-5.0737123 2.628118 -0.17038572 0
1.2912171 2.3858771 -0.1764638 0
1.2151599 2.3855896 -0.17491119 0
1.1146358 2.3852961 -0.16672951 0
1.0221395 2.3849013 -0.16803694 0
0.92923903 2.3845813 -0.16390857 0
0.82842553 2.3840296 -0.1739412 0
0.71257412 2.383394 -0.18560348 0
0.61405444 2.3832593 -0.16671884 0
0.54118216 2.3828747 -0.17295291 0
0.41857874 2.3822272 -0.18350749 0
0.27994132 2.3819773 -0.16121589 0
0.17504561 2.3814466 -0.16857705 0
0.05870533 2.3808577 -0.17677245 0
-0.071433544 2.3807659 -0.14573102 0
-5.0732861 2.5235071 -0.16884486 0
-5.0728602 2.4191902 -0.1673343 0
-5.0739632 2.315223 -0.16588575 0
-5.0735388 2.2113411 -0.1644332 0
-5.0731149 2.1076231 -0.16300885 0
-5.0726919 2.0040262 -0.16161202 0
-5.0722685 1.9005076 -0.1602421 0
-5.071846 1.797025 -0.1588985 0
-5.0714221 1.6935357 -0.15758067 0
5.5058813 1.4529921 -0.17373076 0
5.1444092 1.4517684 -0.15598693 0
4.8523912 1.4507819 -0.14168167 0
4.6114345 1.4499766 -0.12990451 0
4.4096365 1.4487269 -0.16014113 0
4.2373524 1.4481931 -0.14879341 0
4.0888162 1.4477326 -0.13903812 0
3.9596887 1.4468683 -0.16291073 0
3.8458242 1.4465424 -0.15353596 0
3.6848884 1.445824 -0.15855537 0
3.5738358 1.4453961 -0.15722874 0
3.5005465 1.4452025 -0.15004627 0
3.4035285 1.4449456 -0.14059398 0
3.2917891 1.4443477 -0.15110108 0
3.1967325 1.4438385 -0.16009241 0
3.1108925 1.443493 -0.16010763 0
-5.0709987 1.5899978 -0.15628812 0
0.668625 1.3926753 -0.17421128 0
0.61728323 1.4332552 -0.16918425 0
0.45247531 1.4326403 -0.16524059 0
0.33570123 1.4320197 -0.17554151 0
0.20278811 1.4318075 -0.15224773 0
0.049844265 1.4310309 -0.16318665 0
-0.12781549 1.4307032 -0.13516882 0
-0.33717108 1.4296901 -0.14659469 0
-0.58743334 1.4284786 -0.16028285 0
-0.89202714 1.4270037 -0.17697579 0
-1.2709751 1.4251683 -0.19778067 0
-5.0705743 1.4863683 -0.1550203 0
0.66892648 1.3220055 -0.17556486 0
-4.6045704 1.4122872 -0.14464504 0
0.88011467 0.9797737 -0.16675124 0
-5.0607309 -0.90850365 -0.13264941 0
-5.0602407 -1.0272883 -0.13186176 0
-5.0597444 -1.1474156 -0.13109317 0
-5.0592427 -1.2689594 -0.1303436 0
-5.0587344 -1.3919948 -0.1296131 0
-5.0582199 -1.5166016 -0.12890175 0
-5.0576982 -1.6428615 -0.12820961 0
-5.057169 -1.7708607 -0.12753679 0
-5.056632 -1.9006889 -0.1268834 0
-5.0560875 -2.0324395 -0.12624961 0
-5.0555329 -2.1662114 -0.12563561 0
-5.0549707 -2.3021069 -0.12504162 0
-5.0529013 -2.4393456 -0.1244445 0
5.1067367 6.7458391 -0.16636993 0
5.0117621 6.74546 -0.16579464 0
4.9183712 6.7450876 -0.16524905 0
4.7812629 6.7445393 -0.16448772 0
4.6469526 6.7440019 -0.16378129 0
4.5591655 6.7436504 -0.16334559 0
4.4726129 6.7433033 -0.16293541 0
4.3872352 6.7429609 -0.16255006 0
4.3029728 6.7426224 -0.16218884 0
4.1786747 6.7421227 -0.16169386 0
7.4203548 4.0653129 -0.12485948 0
7.4207125 3.977247 -0.12314139 0
7.4210644 3.8901861 -0.12146311 0
7.4214134 3.8040776 -0.11982328 0
7.4217587 3.7188716 -0.11822061 0
7.4221015 3.6345201 -0.11665389 0
7.4226079 3.509584 -0.11437282 0
7.42311 3.3861277 -0.11215806 0
7.42344 3.3047385 -0.11072402 0
7.423768 3.2239838 -0.10932063 0
7.4242554 3.1040199 -0.10727455 0
7.4247398 2.9851286 -0.1052853 0
7.4250593 2.9065197 -0.1039957 0
7.4253778 2.8283546 -0.10273252 0
7.4258518 2.711906 -0.10088883 0
7.4263229 2.5961699 -0.099094503 0
7.4266357 2.5194314 -0.097930104 0
7.427103 2.4048514 -0.096229412 0
7.4275684 2.2907195 -0.094573185 0
1.2879789 2.3872864 -0.075427055 0
1.2146828 2.3869386 -0.078928754 0
1.1141026 2.3867486 -0.063208088 0
1.0174292 2.3863084 -0.066502206 0
0.92871916 2.3859038 -0.069569774 0
0.82784855 2.385443 -0.073099002 0
0.71192789 2.384913 -0.077199042 0
0.61352968 2.3844624 -0.08070831 0
0.54062223 2.3841286 -0.083324708 0
0.41795671 2.3835664 -0.087753117 0
0.27927852 2.3834028 -0.058618747 0
0.17432773 2.3829458 -0.060684036 0
0.057923079 2.3824387 -0.062982455 0
-0.071973562 2.3818724 -0.065555498 0
7.4278784 2.2148764 -0.093497783 0
7.4283414 2.1013846 -0.091926277 0
7.4288054 1.9880873 -0.09039516 0
7.4291124 1.9126335 -0.089400619 0
7.4295759 1.7994769 -0.087946817 0
7.4298849 1.7239825 -0.086998887 0
7.4303484 1.6106783 -0.085609242 0
7.4306583 1.5350133 -0.084706426 0
7.3931856 1.4619659 -0.083306246 0
6.6755204 1.41659 -0.072416693 0
5.5043373 1.4546486 -0.055948853 0
5.1431446 1.4532489 -0.050738998 0
4.8513327 1.4521207 -0.046539638 0
4.6105318 1.4511986 -0.043083344 0
4.4084125 1.4504243 -0.040190417 0
4.2362814 1.4497648 -0.037734274 0
4.0878687 1.4491961 -0.03562361 0
3.9588096 1.448247 -0.066004127 0
3.8450336 1.4478382 -0.062460609 0
3.6991203 1.4473072 -0.057939082 0
3.5730708 1.4468544 -0.054053921 0
3.4998417 1.4465911 -0.051810227 0
3.4028983 1.4462422 -0.048858456 0
3.2911038 1.4458396 -0.04548306 0
3.1961303 1.4452211 -0.062114868 0
3.1141129 1.4449438 -0.058363456 0
0.6680758 1.394014 -0.064972654 0
0.60206497 1.4346193 -0.067524761 0
0.45264149 1.4339331 -0.07302364 0
0.33590996 1.4333966 -0.077337183 0
0.20300186 1.4332684 -0.047345318 0
0.050118208 1.4326017 -0.050404888 0
-0.12762475 1.4318265 -0.053970255 0
-0.3369205 1.4309134 -0.058177583 0
-0.58710146 1.429822 -0.063216731 0
-0.8915832 1.4284934 -0.069360599 0
-1.27037 1.4268404 -0.07701616 0
-1.754668 1.4247268 -0.086818248 0
-2.3960016 1.4219277 -0.099815056 0
0.66836858 1.3233514 -0.064814232 0
-3.2859638 1.4180431 -0.11786993 0
0.87998283 0.98129398 -0.058511142 0
5.1062956 6.7486572 0.033369765 0
5.0113206 6.7482543 0.032245573 0
4.9179287 6.7478585 0.031160243 0
4.7808189 6.7472773 0.029606525 0
4.6465073 6.7467089 0.0281239 0
4.5587187 6.7463379 0.027180871 0
4.4721651 6.7459717 0.026270485 0
4.3867865 6.7456126 0.0253917 0
4.3025236 6.7452564 0.024543531 0
4.1782236 6.7447329 0.0233302 0
7.4191713 4.0676293 0.074527472 0
7.4195347 3.9795597 0.07508076 0
7.4198942 3.8924954 0.07564792 0
7.4202499 3.8063846 0.076228961 0
7.4206009 3.7211761 0.076823875 0
7.420949 3.6368225 0.077432707 0
7.4214635 3.511884 0.078373879 0
7.4219723 3.3884268 0.079343177 0
7.422307 3.3070371 0.080008239 0
7.4226394 3.2262821 0.080687575 0
7.4231334 3.1063192 0.081735432 0
7.4236221 2.9874294 0.082812458 0
7.4239445 2.9088221 0.083550185 0
7.4242659 2.8306592 0.084302902 0
7.4247446 2.7142146 0.085462421 0
7.4252195 2.5984833 0.086652897 0
7.4255347 2.5217481 0.087467566 0
7.4260044 2.4071751 0.088721804 0
7.4264717 2.2930505 0.090008967 0
1.2874634 2.3887982 0.032284167 0
1.2141184 2.3885424 0.035364181 0
1.1136798 2.3879025 0.019053645 0
1.016958 2.3875468 0.021790331 0
0.92820036 2.3872209 0.024346486 0
0.82727289 2.3868506 0.027294304 0
0.71128273 2.3864262 0.030726328 0
0.61282253 2.386066 0.033668686 0
0.5398674 2.3857994 0.035865098 0
0.41711688 2.3853514 0.039587066 0
0.2787919 2.3843644 0.0096366908 0
0.17379904 2.3839567 0.011095956 0
0.057346106 2.3835046 0.012722259 0
-0.072607517 2.3830009 0.014545299 0
7.4267826 2.2172132 0.090889491 0
7.427247 2.1037304 0.092244819 0
7.427711 1.990443 0.093635514 0
7.4280195 1.9149965 0.094586812 0
7.4284825 1.8018519 0.096051142 0
7.428791 1.726366 0.097050078 0
7.4292536 1.6130753 0.09858235 0
7.429563 1.5374203 0.099630758 0
7.3897338 1.4645373 0.099841826 0
6.6745791 1.4186751 0.085954614 0
5.5027957 1.4563017 0.061605461 0
5.1418829 1.4547267 0.054313548 0
4.8502755 1.453457 0.048431575 0
4.6096306 1.4524183 0.043586306 0
4.4076328 1.4515464 0.039527331 0
4.2355976 1.450804 0.036077999 0
4.0872631 1.4501641 0.033110902 0
3.9577262 1.4500595 0.062719822 0
3.8440576 1.4495419 0.05852272 0
3.6982484 1.4488783 0.053161301 0
3.5723076 1.4483054 0.048551619 0
3.4991376 1.4479727 0.045886829 0
3.4022689 1.4475324 0.042377435 0
3.290556 1.4470254 0.038358755 0
3.195406 1.4468685 0.054427423 0
3.1134663 1.4464784 0.050205898 0
0.66752911 1.3953466 0.043770075 0
0.60223413 1.4361982 0.044854719 0
0.45287812 1.4356545 0.049486171 0
0.33620572 1.43523 0.053121831 0
0.20321131 1.4342536 0.022384465 0
0.050378084 1.433661 0.024559606 0
-0.12730002 1.4329722 0.027096651 0
-0.3365109 1.4321611 0.03009299 0
-0.58657813 1.4311919 0.033684392 0
-0.890903 1.4300127 0.038066037 0
-1.2694681 1.4285457 0.043528918 0
-1.7534382 1.4266708 0.050526924 0
-2.3942616 1.4241881 0.05980929 0
0.66781342 1.3246912 0.045434255 0
-3.283371 1.4207439 0.072707623 0
0.87985289 0.98280716 0.049169287 0
7.3805304 6.7143598 0.065266073 0
7.2053428 6.7576237 0.062496964 0
7.0623116 6.7570095 0.060300019 0
6.9233437 6.7564144 0.058189936 0
6.7882137 6.7558341 0.056162264 0
6.6567106 6.755271 0.05421285 0
6.5286407 6.7547221 0.052337803 0
6.4038191 6.7541881 0.050533533 0
6.2820749 6.7536674 0.048796669 0
6.1632471 6.7531595 0.047124073 0
6.0471864 6.7526641 0.04551281 0
5.9337506 6.7521796 0.043960121 0
5.8228064 6.7517056 0.042463444 0
5.7142296 6.7512431 0.041020356 0
5.6079006 6.7507901 0.039628614 0
5.5037098 6.7503467 0.038286064 0
5.4015503 6.7499118 0.036990732 0
5.3013239 6.749486 0.035740722 0
5.2029357 6.7490678 0.034534294 0
7.4089484 6.534121 0.06591405 0
7.4095011 6.4011927 0.066102222 0
7.4100404 6.2714987 0.066310376 0
7.4105663 6.1448722 0.066537865 0
7.4110799 6.0211539 0.066784129 0
7.411582 5.9001966 0.067048624 0
7.4120736 5.7818618 0.067330867 0
7.4125547 5.6660171 0.067630395 0
7.4130259 5.5525384 0.067946792 0
7.4134865 5.4413099 0.068279691 0
7.4139385 5.3322206 0.068628736 0
7.4143829 5.2251658 0.068993606 0
7.4148178 5.1200471 0.06937404 0
7.415246 5.0167699 0.06976974 0
7.4156666 4.9152451 0.070180513 0
7.4160795 4.8153877 0.070606127 0
7.4164863 4.7171183 0.07104639 0
7.4168873 4.6203585 0.071501158 0
7.4172812 4.5250354 0.071970269 0
7.4176702 4.4310789 0.072453611 0
7.4180532 4.3384233 0.072951078 0
7.4184303 4.2470036 0.073462591 0
7.4188032 4.1567583 0.073988065 0
-5.0787253 3.4845574 0.075091772 0
-5.0782785 3.3759191 0.07607916 0
-5.0778351 3.2679505 0.077086844 0
-5.077394 3.1606016 0.078115016 0
-5.0769558 3.0538235 0.079163969 0
-5.076519 2.9475682 0.080233939 0
-5.0760851 2.841789 0.081325248 0
-5.0756526 2.7364388 0.082438201 0
-5.075222 2.6314723 0.083573088 0
1.2897259 2.3902335 0.13342747 0
1.2136335 2.3898964 0.13143168 0
1.113134 2.3893628 0.1226614 0
1.0205717 2.3889961 0.12343477 0
0.92766368 2.3885512 0.1187616 0
0.82667661 2.3882728 0.12822373 0
0.71061373 2.387955 0.13923159 0
0.61227322 2.3872788 0.11974904 0
0.53927994 2.3870635 0.12556916 0
0.4164629 2.3867018 0.13542804 0
0.2780602 2.3858109 0.11231174 0
0.17300403 2.385478 0.11907516 0
0.056478024 2.3851087 0.12660812 0
-0.073242188 2.3841305 0.094772443 0
-5.0747929 2.5268457 0.084730282 0
-5.0743656 2.4225132 0.085910179 0
-5.0754671 2.3185325 0.087134078 0
-5.0750413 2.2146368 0.088360786 0
-5.0746164 2.1109056 0.089611456 0
-5.0741925 2.0072963 0.090886503 0
-5.0737691 1.9037658 0.092186444 0
-5.0733452 1.8002721 0.09351179 0
-5.0729227 1.6967725 0.094863087 0
5.5012541 1.4579555 0.17921904 0
5.1406202 1.4562054 0.15942705 0
4.8492174 1.4547943 0.14346372 0
4.6087294 1.4536389 0.13031593 0
4.4064608 1.4532326 0.15931857 0
4.2345705 1.4523658 0.14700045 0
4.0863533 1.4516184 0.13640691 0
3.956912 1.4514223 0.15949455 0
3.8433232 1.4508229 0.14948161 0
3.6824803 1.4502319 0.15355957 0
3.5715613 1.4497569 0.15159447 0
3.4984488 1.449355 0.14400329 0
3.4016523 1.4488236 0.13400862 0
3.2898822 1.4485116 0.1438483 0
3.1948094 1.4482472 0.15227926 0
3.1090534 1.4478966 0.1517965 0
-5.0724993 1.5932246 0.096240871 0
0.66688001 1.3966563 0.15308824 0
0.61776495 1.4376961 0.14647682 0
0.45308495 1.4369555 0.14159355 0
0.33646047 1.4366155 0.15120186 0
0.20352614 1.4357342 0.12717538 0
0.050768375 1.4352527 0.13721253 0
-0.12697482 1.4341186 0.10822242 0
-0.33610058 1.4334098 0.11842379 0
-0.58605385 1.4325628 0.13064653 0
-0.89022303 1.4315327 0.14555344 0
-1.2685659 1.430252 0.16413255 0
-5.0720758 1.4895862 0.09764576 0
0.66715515 1.3260032 0.15626687 0
-4.6004057 1.4156425 0.091838077 0
0.87973261 0.98433411 0.15734451 0
-5.0623322 -0.90533727 0.1370406 0
-5.0618505 -1.0241174 0.1393165 0
-5.0613642 -1.1442404 0.14164607 0
-5.0608721 -1.2657789 0.14403121 0
-5.0603738 -1.3888087 0.1464739 0
-5.0598698 -1.5134089 0.14897624 0
-5.0593586 -1.6396621 0.15154043 0
-5.0588408 -1.7676538 0.15416881 0
-5.0583162 -1.8974741 0.15686379 0
-5.0577841 -2.0292161 0.15962797 0
-5.0572433 -2.1629791 0.16246408 0
-5.0566945 -2.2988651 0.16537496 0
-5.0546398 -2.4360945 0.1683262 0
5.1058545 6.7514787 0.23337309 0
5.0108786 6.7510524 0.23054698 0
