# .PCD v0.7 - Point Cloud Data file format
VERSION 0.7
FIELDS x y z intensity
SIZE 4 4 4 4
TYPE F F F F
COUNT 1 1 1 1
WIDTH 1441
HEIGHT 1
VIEWPOINT 0 0 0 1 0 0 0
POINTS 1441
DATA ascii
2.7439058 6.757359 0.39591098 0
2.7374694 1.4576745 0.31453615 0
2.6733804 6.7609038 0.40031278 0
2.6400602 1.4625874 0.31990689 0
2.5300539 5.4867806 0.42067289 0
2.5335727 5.5551138 0.42545998 0
2.5383782 5.6484332 0.43224326 0
2.5420752 5.7202091 0.43764642 0
2.5921876 6.6994209 0.40021932 0
2.6008015 6.7645507 0.40490705 0
2.5388153 1.4676907 0.32565364 0
2.4481497 3.892983 0.3647503 0
2.4519982 3.9680173 0.36477786 0
2.4567778 4.061192 0.36513755 0
2.4615285 4.1537781 0.36592805 0
2.467212 4.264513 0.36739248 0
2.4719467 4.3567386 0.36904508 0
2.4766943 4.4491873 0.37113541 0
2.482424 4.5607314 0.37418005 0
2.4872394 4.6544485 0.37717539 0
2.4921103 4.7492261 0.38064498 0
2.4980414 4.864603 0.38540164 0
2.5030708 4.9624162 0.38988194 0
2.5082054 5.0622435 0.39490762 0
2.513447 5.1641302 0.40043753 0
2.5177379 5.2475176 0.4052873 0
2.5232418 5.3544464 0.41191775 0
2.527751 5.4420447 0.41763401 0
2.4342484 1.4729593 0.33172238 0
2.375052 2.4652495 0.4082284 0
2.4066341 3.0826335 0.38028955 0
2.4100349 3.1490672 0.37803659 0
2.4155664 3.2571142 0.37472022 0
2.4209552 3.3623486 0.37189168 0
2.4262018 3.4647758 0.36959136 0
2.4313405 3.565074 0.36773145 0
2.4363737 3.6632857 0.36635432 0
2.4413285 3.7599523 0.36538488 0
2.4452398 3.8362405 0.36492687 0
2.3621702 1.4765894 0.33599579 0
2.3260856 1.5169523 0.33643743 0
2.227494 1.5364301 0.34186026 0
2.0537341 1.4921017 0.35499868 0
1.9709959 1.4962583 0.36027795 0
1.8857355 1.5005407 0.36579189 0
1.797799 1.5049558 0.37155384 0
1.7070214 1.5095122 0.37757811 0
1.613223 1.5142186 0.38388023 0
1.5162104 1.5190852 0.39047709 0
7.6333256 5.1970615 0.50866359 0
7.580193 2.5611506 0.49576101 0
7.5741429 5.2369905 0.50313741 0
7.5787425 5.3262186 0.51107574 0
7.5834842 5.4182081 0.51962948 0
7.5883846 5.5132484 0.52884287 0
7.593461 5.6116576 0.53876561 0
7.5987296 5.7137895 0.54945391 0
7.6042113 5.8200369 0.56097144 0
7.6084685 5.9025316 0.57016641 0
7.4702196 6.5128756 0.50382221 0
7.3794107 1.4436076 0.44250309 0
7.3831196 1.5162196 0.43729451 0
7.3884745 1.6210432 0.42994756 0
7.3936348 1.7220542 0.42303747 0
7.398572 1.818682 0.41663459 0
7.3733478 6.5179863 0.49593797 0
7.3864508 -0.81071615 0.44707751 0
7.3280959 1.2194412 0.45609975 0
7.3716493 1.2916527 0.45368028 0
7.3755889 1.3687966 0.44796044 0
7.2796865 6.5229235 0.48847961 0
7.2616806 -3.4405341 0.33924839 0
7.2494531 -1.0909257 0.46000028 0
7.2587171 -0.90965414 0.44871074 0
7.2982697 -0.80612803 0.44354314 0
7.2245436 1.2248991 0.44793087 0
7.1426988 -3.434392 0.33733365 0
7.1250215 1.2301407 0.4403044 0
7.0740876 6.5316896 0.5845443 0
7.1121297 -3.7621174 0.34816962 0
7.0284786 1.2352219 0.43308336 0
6.963594 6.5375404 0.57421029 0
7.0183878 -3.8703146 0.35069722 0
6.9353809 1.2401178 0.42633733 0
6.8575559 6.5431485 0.56468379 0
6.8154521 1.2464204 0.41793123 0
6.7555442 6.5485373 0.55590272 0
6.728426 1.2509906 0.41204202 0
6.6571755 6.5537267 0.54781228 0
6.6090741 -0.46627331 0.39919585 0
6.6323056 1.2270224 0.40845236 0
6.5854874 6.5575056 0.54214919 0
6.5346661 -0.46241283 0.3968918 0
6.4610662 -0.45859718 0.39469901 0
6.3553076 -0.46426582 0.39246774 0
6.2876534 6.1856451 0.54745668 0
6.2535849 6.2998304 0.56522572 0
6.2919078 6.4080563 0.49554285 0
6.2987566 6.5403852 0.51671749 0
6.2440023 6.5607891 0.51600814 0
6.2565513 -0.49274445 0.39212242 0
6.1759768 6.3427172 0.56612742 0
6.128675 6.367115 0.56664675 0
6.1607976 6.5651464 0.51101226 0
6.1904421 -0.51085663 0.3919408 0
6.0646801 6.3978367 0.56730968 0
6.0594978 6.5704441 0.50542796 0
5.9835944 6.4339418 0.56810063 0
5.9343224 6.4542108 0.56855226 0
5.9605956 6.5756068 0.50046897 0
5.8678579 6.4793491 0.56912315 0
5.8640685 6.580636 0.49618569 0
5.7669244 6.513711 0.56992388 0
5.7693272 6.5855637 0.49246493 0
5.7003479 1.3028865 0.46335015 0
5.6697578 6.1936159 0.57817006 0
5.6817379 6.5391207 0.57053727 0
5.6732397 6.5772572 0.51690733 0
5.6358757 1.3062422 0.46071002 0
5.5757065 6.1985264 0.57345486 0
5.5609369 6.5692949 0.57130539 0
5.5299802 1.3117459 0.4568381 0
5.4680548 6.2041254 0.5692209 0
5.4912939 6.5840321 0.571702 0
5.4256659 1.317158 0.45356321 0
5.3679876 6.2098951 0.53573596 0
5.376368 6.5327272 0.55743539 0
5.3327713 6.6066937 0.57188487 0
5.3228369 1.3224826 0.45094687 0
5.2724104 6.2189598 0.56580222 0
5.2616539 6.6103559 0.57124501 0
5.2210407 1.327745 0.44889006 0
5.167932 6.2285833 0.56618035 0
5.1729507 6.614913 0.57102305 0
5.120131 1.3329504 0.44745806 0
5.063067 6.2331953 0.56647223 0
5.0664821 6.6203694 0.57154757 0
5.0598283 1.3359165 0.44686499 0
4.9996986 1.33901 0.44646582 0
4.9730539 6.2328367 0.56664777 0
4.9596243 6.6258307 0.5729661 0
4.9396691 1.3420949 0.44629428 0
4.897799 6.2335167 0.56770277 0
4.8370481 6.2366018 0.56965041 0
4.8526073 6.6237202 0.57368124 0
4.8396587 1.3472271 0.44646248 0
4.7603216 6.2404881 0.57269579 0
4.7636671 6.6162357 0.57373083 0
4.7395015 1.3523607 0.44716087 0
4.666893 6.2452064 0.5772146 0
4.6750479 6.6053381 0.57372046 0
4.6512299 6.6430826 0.49073386 0
4.6389017 1.3575079 0.44847041 0
4.5876641 6.2491956 0.58172727 0
4.569253 6.5881777 0.57363605 0
4.5578547 6.6478176 0.49413267 0
4.5376687 1.3626769 0.45032215 0
4.4740357 6.2562799 0.50929374 0
4.4852085 6.3395529 0.52580673 0
4.491158 6.4542274 0.54910749 0
4.4991207 6.5743661 0.57353771 0
4.4354248 1.3678877 0.4528062 0
4.322392 6.6742916 0.50732678 0
4.3320365 1.3731472 0.45585832 0
4.262156 6.6773281 0.51056832 0
4.2270274 1.3784785 0.45958135 0
4.1595907 6.6824908 0.51652563 0
4.1203117 1.3838866 0.46391445 0
4.0542016 6.6877871 0.52316391 0
4.0333538 1.3882866 0.46788877 0
3.9673522 6.6921439 0.52905393 0
3.9448349 1.3927586 0.47231841 0
3.8780646 6.6966162 0.53547412 0
3.8315933 1.3984694 0.47855279 0
3.7624738 6.7023983 0.54432929 0
3.7154179 1.4043183 0.48552361 0
3.6424303 6.7083921 0.554079 0
3.6198337 1.4091227 0.49172485 0
3.5424125 6.7133789 0.5626533 0
3.5217056 1.414048 0.498496 0
3.4650443 6.7172327 0.56953073 0
3.4121118 6.7198668 0.57436794 0
3.446373 1.4178243 0.50394964 0
3.3580985 6.7225523 0.57940406 0
3.2747743 6.7266932 0.58737725 0
3.1820726 1.4332137 0.40789849 0
3.1264505 1.4360087 0.41157016 0
3.0695105 6.7390356 0.49170393 0
3.0409501 1.4403019 0.41738358 0
2.9760091 6.7437048 0.4992989 0
2.923233 1.4462073 0.42567515 0
2.8459578 6.7501693 0.5101465 0
2.8319407 1.450784 0.43232387 0
2.7440252 6.7552271 0.51886642 0
2.7373631 1.4555209 0.43943474 0
2.6735053 6.7587414 0.52501947 0
2.6399477 1.4603968 0.44693965 0
2.5291107 5.4626598 0.52032107 0
2.533783 5.553329 0.52802753 0
2.5385914 5.646615 0.53633636 0
2.54229 5.7183633 0.54296678 0
2.5924342 6.697134 0.5252679 0
2.6009324 6.7623568 0.53144169 0
2.5386956 1.4654613 0.45497099 0
2.4483552 3.8914955 0.45755395 0
2.4522021 3.9665291 0.45723641 0
2.4569805 4.0597014 0.45726189 0
2.4617302 4.1522837 0.4578456 0
2.4674125 4.2630119 0.4592132 0
2.4721463 4.3552294 0.46091056 0
2.4768934 4.4476686 0.46317139 0
2.4826229 4.5591974 0.46657306 0
2.4874382 4.6529007 0.46999508 0
2.4923093 4.7476625 0.47402364 0
2.4982412 4.8630157 0.47961527 0
2.5032721 4.9608073 0.48493308 0
2.5084076 5.0606098 0.4909448 0
2.5136504 5.1624699 0.49759698 0
2.5179427 5.2458334 0.5034591 0
2.5234478 5.3527303 0.51150692 0
2.4341218 1.4706883 0.46345317 0
2.3767176 2.4911222 0.51828808 0
2.4068649 3.0810828 0.48140737 0
2.4102628 3.147526 0.47818923 0
2.4157906 3.2555859 0.47340384 0
2.421176 3.3608322 0.46926087 0
2.4264188 3.4632685 0.4658123 0
2.4315548 3.5635746 0.46294162 0
2.4365845 3.6617918 0.46070346 0
2.4415369 3.7584617 0.45899832 0
2.4454467 3.8347518 0.45804873 0
2.3620386 1.4742889 0.46942672 0
2.3263769 1.5150666 0.46971592 0
2.227351 1.5340972 0.47726479 0
2.0535781 1.4896719 0.49599344 0
1.9708334 1.4937928 0.50337505 0
1.2787716 6.8308325 0.49727008 0
1.153241 6.8371148 0.50667858 0
1.0217805 6.8436928 0.51661843 0
0.88390064 6.8505907 0.52713257 0
0.82615495 1.0982144 0.45406944 0
7.6331029 5.1953363 0.60928434 0
7.5803871 2.559284 0.6032691 0
7.5743537 5.2354689 0.6024493 0
7.5789566 5.3246813 0.61186361 0
7.583703 5.4166546 0.62202299 0
7.5886078 5.5116768 0.63298059 0
7.5936871 5.6100659 0.64479679 0
7.5989614 5.7121758 0.65753889 0
7.6044488 5.8183994 0.67128342 0
7.4699745 6.5106735 0.62459284 0
7.3796592 1.4412596 0.56948155 0
7.3833652 1.5139127 0.56241977 0
7.3887157 1.6187963 0.5524475 0
7.3938713 1.7198634 0.54305702 0
7.3988047 1.8165417 0.53434134 0
7.4035735 1.9099879 0.5261277 0
7.4081526 1.9997065 0.51849955 0
7.3731146 6.5158215 0.61440027 0
7.3282104 1.217154 0.58804595 0
7.3719058 1.2892144 0.58461738 0
7.3758416 1.3664045 0.57687461 0
7.2492476 6.5224004 0.60171658 0
7.2291703 -1.4878025 0.48504159 0
7.2396235 -1.2832646 0.47208363 0
7.2246504 1.2226536 0.57748216 0
7.1600018 6.5271354 0.59283769 0
7.2061234 -1.938828 0.5139612 0
7.2180295 -1.7058315 0.49896574 0
7.1251216 1.2279341 0.5676192 0
7.0285721 1.2330525 0.55827993 0
6.9364648 6.537076 0.68174636 0
6.9354692 1.2379837 0.54955435 0
6.8574762 6.5412807 0.67308331 0
6.8155327 1.2443295 0.53868049 0
6.7554703 6.5467038 0.66228789 0
6.7285028 1.248929 0.53106183 0
6.6571083 6.5519257 0.65234071 0
6.6324286 1.2248785 0.52655983 0
6.585423 6.5557261 0.6453774 0
6.2877278 6.1843481 0.63490349 0
6.2859898 6.2835455 0.65606928 0
6.2901397 6.3634453 0.67393529 0
5.9409995 6.5733776 0.68777734 0
5.7496123 6.189436 0.58285719 0
5.7004066 1.3009374 0.5681361 0
5.6359282 1.3043036 0.56488311 0
5.5300236 1.309823 0.56011057 0
5.4257002 1.3152483 0.55607092 0
5.3770032 6.2075481 0.64431775 0
5.3228626 1.3205836 0.55283988 0
5.2210574 1.3258538 0.55029583 0
5.1201386 1.3310649 0.54851896 0
5.0598307 1.3341744 0.54775494 0
4.9996982 1.3372698 0.54725349 0
4.9396667 1.3403554 0.5470314 0
4.839653 1.3454878 0.54721862 0
4.7394919 1.3506193 0.54805654 0
4.6388879 1.3557615 0.54964447 0
4.5394068 6.2516203 0.58478379 0
4.5376511 1.360924 0.55189776 0
4.4850063 6.2538805 0.61563033 0
4.4354038 1.3661253 0.55492693 0
4.3224216 6.6726513 0.60220963 0
4.3320112 1.3713739 0.55865312 0
4.2621884 6.6756754 0.60617602 0
4.2269983 1.3766909 0.56320244 0
4.1596265 6.6808147 0.61346692 0
4.1202779 1.3820827 0.5685001 0
4.0542421 6.6860847 0.62159312 0
4.0333157 1.386467 0.5733614 0
3.9673972 6.6904187 0.62880433 0
3.9447927 1.3909218 0.57878101 0
3.8781142 6.6948662 0.63666588 0
3.831547 1.3966093 0.58641124 0
3.7625294 6.700613 0.64751047 0
3.7153664 1.4024312 0.59494454 0
3.6424918 6.7065697 0.65945178 0
3.6439807 1.4060025 0.60055369 0
3.5424798 6.7115231 0.66995466 0
3.465116 6.7153492 0.67837954 0
3.4121869 6.7179642 0.68430537 0
3.3951538 1.4203894 0.5077951 0
3.3167109 1.424315 0.5138936 0
3.2092233 1.4296875 0.52260399 0
3.1595266 6.7324133 0.59875238 0
3.126266 1.4338293 0.52959484 0
3.0697265 6.736865 0.60787958 0
3.040756 1.4380941 0.53707397 0
2.9762373 6.7414961 0.61765206 0
2.9230261 1.443959 0.54774225 0
2.8462031 6.7479057 0.63161075 0
2.831722 1.4485025 0.55629754 0
2.7442851 6.7529202 0.64283222 0
2.7371333 1.4532049 0.56544834 0
2.673775 6.756403 0.65075052 0
2.6397057 1.4580441 0.5751068 0
2.5293179 5.4608903 0.62259799 0
2.5339925 5.551528 0.63171929 0
2.5388031 5.6447787 0.64157027 0
2.5425041 5.7164989 0.64944112 0
2.5926807 6.6948299 0.65136856 0
2.601212 6.7599854 0.6590156 0
2.5384412 1.4630687 0.58544356 0
2.4485514 3.8899899 0.55137736 0
2.4528599 3.9718981 0.58852077 0
2.4572725 4.0574307 0.59759629 0
2.4620211 4.1500072 0.59786516 0
2.4677026 4.260726 0.59908515 0
2.472436 4.3529325 0.60085046 0
2.4771833 4.4453564 0.60337085 0
2.4825096 4.5495543 0.5975318 0
2.4876316 4.6513381 0.56383425 0
2.4925036 4.7460828 0.5684278 0
2.4984362 4.861413 0.57486331 0
2.503468 4.9591827 0.58102775 0
2.5086057 5.0589614 0.58803588 0
2.5138502 5.1607938 0.59582263 0
2.5181439 5.2441339 0.60270804 0
2.5236521 5.3509965 0.61218846 0
2.4338541 1.4682543 0.59636104 0
2.3739057 2.4360592 0.52239859 0
2.4070818 3.0795083 0.58363545 0
2.4104776 3.1459608 0.57944167 0
2.4160013 3.2540362 0.57317126 0
2.4213831 3.3592937 0.56769949 0
2.4266238 3.4617405 0.56309021 0
2.4317567 3.5620551 0.55919784 0
2.4367847 3.6602783 0.55608928 0
2.4417355 3.756953 0.55364031 0
2.4456437 3.8332453 0.55219376 0
2.3617611 1.4718258 0.60405004 0
2.3266959 1.5131898 0.60410839 0
1.885566 1.4980371 0.51108515 0
1.7976222 1.502413 0.51914263 0
1.7068367 1.5069289 0.52756727 0
1.6130297 1.5115921 0.53638089 0
1.5160078 1.5164142 0.54560709 0
1.2790308 6.8279953 0.66060054 0
1.1535147 6.8342123 0.67376006 0
1.0220701 6.8407211 0.6876632 0
7.6328773 5.1935868 0.71126252 0
7.5805845 2.5573916 0.71226352 0
7.5745683 5.2339253 0.70313561 0
7.5791736 5.3231235 0.7140463 0
7.5839238 5.4150791 0.72583377 0
7.5888333 5.5100832 0.73856032 0
7.5939174 5.6084528 0.75229639 0
7.599196 5.7105398 0.76712108 0
7.6087098 5.900876 0.6822651 0
7.4698553 6.5085707 0.74671859 0
7.3799334 1.438859 0.69790584 0
7.383635 1.5115559 0.68896937 0
7.3889804 1.6164999 0.67634118 0
7.3941312 1.7176247 0.66444123 0
7.3990598 1.814357 0.65338606 0
7.4038243 1.9078541 0.64295912 0
7.4083996 1.9976194 0.63326448 0
7.3730016 6.5137591 0.73419213 0
7.3865509 -0.81406212 0.64032406 0
7.2491436 6.5203872 0.71860361 0
7.249824 -1.0950556 0.6603716 0
7.2590795 -0.91363573 0.64333552 0
7.2983661 -0.80944824 0.63533318 0
7.159903 6.525157 0.7076906 0
7.1253157 1.2255735 0.69639105 0
7.0739946 6.5297432 0.69749689 0
7.0287557 1.2307286 0.68490934 0
6.9905519 6.534194 0.68784207 0
6.9356437 1.2356939 0.67418158 0
6.8573956 6.5393877 0.78295475 0
6.8156948 1.2420826 0.66081178 0
6.7553964 6.5448456 0.77011788 0
6.7286558 1.2467127 0.65144378 0
6.6570396 6.5501003 0.75828892 0
6.6326094 1.2226064 0.64602065 0
6.5853581 6.5539227 0.75000775 0
6.2878027 6.1830301 0.72378254 0
6.2861996 6.2824106 0.74816471 0
6.2924466 6.4052067 0.73084611 0
6.2992091 6.538053 0.71336466 0
6.2439075 6.5574112 0.71188653 0
6.1607103 6.5618091 0.70457333 0
6.0594206 6.5671501 0.69639564 0
5.9670124 6.5709009 0.75391608 0
5.863977 6.5757685 0.77833205 0
5.7692471 6.5807409 0.7719835 0
5.7004333 1.2991023 0.67434222 0
5.6762462 6.5856066 0.76667649 0
5.6359525 1.3024793 0.67046797 0
5.5663347 6.5913391 0.76150692 0
5.5300431 1.3080149 0.66478217 0
5.4938726 6.5951066 0.75874013 0
5.4257154 1.3134537 0.65996736 0
5.3769574 6.5340581 0.73653358 0
5.3327518 6.6035371 0.75472683 0
5.3228741 1.3187997 0.65611333 0
5.2616401 6.6072035 0.75382215 0
5.221065 1.3240786 0.65307528 0
5.1729436 6.6117625 0.75348777 0
5.1201425 1.3292964 0.65094858 0
5.0664825 6.6172161 0.75417662 0
5.0598321 1.3324082 0.65003163 0
4.9996972 1.3355052 0.64942634 0
4.9596334 6.6226678 0.75609773 0
4.9396639 1.3385923 0.64915311 0
4.851995 6.628139 0.7592684 0
4.8396459 1.3437243 0.64935946 0
4.7614331 6.6327262 0.76285553 0
4.7394814 1.3488538 0.65033889 0
4.6697192 6.6373558 0.76741469 0
4.6388736 1.3539908 0.65220904 0
4.5579143 6.6429801 0.77409482 0
4.5376329 1.3591466 0.65486944 0
4.4854975 6.3357153 0.69257486 0
4.491457 6.4501419 0.72395444 0
4.4980264 6.5762625 0.75867885 0
4.4353819 1.3643389 0.65845132 0
4.3224506 6.6709895 0.6983819 0
4.3319855 1.3695755 0.66286081 0
4.2622204 6.6740007 0.70308298 0
4.2269678 1.3748779 0.6682477 0
4.1596632 6.6791162 0.71172553 0
4.1202435 1.3802538 0.67452347 0
4.0542846 6.6843596 0.72135949 0
4.0332775 1.3846228 0.68028396 0
3.9674432 6.6886702 0.72990996 0
3.9447508 1.3890607 0.68670744 0
3.8781641 6.6930933 0.73923224 0
3.8314993 1.3947239 0.6957525 0
3.7625854 6.6988049 0.75209308 0
3.7389135 1.3993435 0.70371926 0
3.6425545 6.7047224 0.76625562 0
3.5955744 1.4084218 0.60452098 0
3.5425479 6.7096415 0.77871317 0
3.5216446 1.412111 0.61082917 0
3.4651885 6.7134409 0.78870618 0
3.420697 1.4171419 0.61986333 0
3.3581767 6.7206306 0.69047523 0
3.3166394 1.4223192 0.6296882 0
3.2748575 6.72474 0.70024353 0
3.2091455 1.4276586 0.64035857 0
3.1596174 6.7304149 0.71418023 0
3.126184 1.4317727 0.64892298 0
3.069823 6.7348318 0.72536361 0
3.0406685 1.4360087 0.65808624 0
2.9763401 6.7394247 0.73733807 0
2.9229317 1.4418325 0.67115766 0
2.8463159 6.745779 0.75444251 0
2.8316224 1.4463432 0.68164068 0
2.7444046 6.7507486 0.76819324 0
2.7370272 1.4510102 0.69285393 0
2.6738999 6.7542009 0.77789658 0
2.6395934 1.4558125 0.70468992 0
2.5295272 5.4590964 0.72625571 0
2.5342047 5.5497017 0.73681098 0
2.5390182 5.6429172 0.74822432 0
2.5427213 5.7146096 0.75735223 0
2.592932 6.6924982 0.77884567 0
2.6013427 6.757751 0.78802514 0
2.4488506 3.8876891 0.69478017 0
2.452266 3.9529788 0.71775287 0
2.4575698 4.0551152 0.74070942 0
2.4623172 4.1476865 0.74065709 0
2.4679978 4.2583947 0.7417267 0
2.4727311 4.3505888 0.74356145 0
2.477478 4.4429989 0.74634647 0
2.4836388 4.5642171 0.72719419 0
2.487926 4.6489496 0.70726103 0
2.4926996 4.7444816 0.66410792 0
2.4986339 4.8597889 0.67139858 0
2.5036671 4.9575372 0.67842072 0
2.5088065 5.057291 0.68643892 0
2.5140531 5.1590953 0.69537503 0
2.5183487 5.2424107 0.70329744 0
2.5238588 5.3492398 0.71422958 0
2.3755548 2.4619014 0.63368767 0
2.4073014 3.0779128 0.6872437 0
2.4106948 3.1443756 0.68206131 0
2.4162154 3.2524645 0.67428613 0
2.4215941 3.3577356 0.66746789 0
2.4268315 3.4601917 0.66168231 0
2.4319615 3.5605159 0.65675455 0
2.4369874 3.6587448 0.65276408 0
2.4419363 3.7554243 0.64956152 0
2.445843 3.8317182 0.6476112 0
2.227051 1.5315993 0.61388075 0
2.0532598 1.487078 0.6382494 0
1.9705034 1.4911623 0.64775246 0
1.8852236 1.4953687 0.65767884 0
1.7972672 1.4997046 0.66805267 0
1.7064687 1.5041788 0.67889947 0
1.6126477 1.5087991 0.69024742 0
0.88420743 6.8475451 0.70237005 0
0.86779988 1.1253433 0.63175839 0
0.87468678 1.2201736 0.62587577 0
0.76985317 1.2369142 0.63557571 0
7.632648 5.1918087 0.81488019 0
7.5747852 5.232357 0.80547589 0
7.5793953 5.3215389 0.81790787 0
7.5841489 5.4134779 0.83135051 0
7.5890622 5.5084629 0.84587532 0
7.594152 5.6068115 0.86156315 0
7.6046891 5.81674 0.78312397 0
7.6089549 5.8991976 0.79591739 0
7.4697337 6.5064392 0.87050116 0
7.3892279 1.6141958 0.80194998 0
7.3943739 1.7153776 0.78750539 0
7.3992991 1.8121631 0.77407783 0
7.4040594 1.9057097 0.76140648 0
7.4086299 1.9955215 0.7496165 0
7.3728871 6.5116682 0.85560942 0
7.3284259 1.2147131 0.72150254 0
7.3721871 1.2867205 0.71704656 0
7.3761196 1.3639588 0.70725721 0
7.2490377 6.5183468 0.83707678 0
7.2295618 -1.4922652 0.69812608 0
7.2400045 -1.2875543 0.67859513 0
7.2248549 1.2202542 0.70851636 0
7.1598039 6.5231519 0.82410252 0
7.2065372 -1.9436831 0.74168092 0
7.2184319 -1.7104812 0.71910232 0
7.0739012 6.527771 0.81198275 0
6.9634218 6.5337038 0.79687947 0
6.905129 1.2351508 0.79636246 0
6.8157773 1.2399409 0.78460062 0
6.7553205 6.5429573 0.87969083 0
6.7287326 1.2446017 0.77345926 0
6.6569695 6.5482445 0.86594969 0
6.6327348 1.2204092 0.76711601 0
6.5852923 6.5520906 0.85632974 0
6.2947617 6.4469476 0.790604 0
6.2994409 6.53686 0.81401926 0
6.2438593 6.5556841 0.81208104 0
6.1606665 6.5601015 0.80358261 0
6.059381 6.565465 0.79407841 0
5.70046 1.2972372 0.78228295 0
5.6359768 1.3006258 0.77777743 0
5.5300636 1.3061767 0.77116358 0
5.4257317 1.3116298 0.76556087 0
5.322886 1.3169866 0.76107335 0
5.2210732 1.3222742 0.75753331 0
5.1201468 1.3274984 0.75505114 0
5.0598345 1.3306131 0.75397861 0
4.9996972 1.3337126 0.75326794 0
4.939661 1.3368006 0.7529425 0
4.8396397 1.3419318 0.7531687 0
4.739471 1.347059 0.75429177 0
4.6388593 1.3521919 0.75644881 0
4.5376153 1.3573406 0.75952297 0
4.43536 1.3625233 0.76366645 0
4.3224812 6.6693001 0.7961098 0
4.3319592 1.3677483 0.76877058 0
4.2622533 6.6722984 0.80155724 0
4.2269368 1.3730361 0.77500898 0
4.1597009 6.6773901 0.81157309 0
4.1202083 1.3783951 0.78227872 0
4.0543265 6.6826067 0.82273918 0
4.0332389 1.3827486 0.78895301 0
3.9674897 6.6868939 0.83265042 0
3.9447083 1.3871689 0.79639673 0
3.8782156 6.6912909 0.84345692 0
3.8772304 1.3905313 0.80247885 0
3.7626426 6.6969666 0.85836643 0
3.6917138 1.4016943 0.70802093 0
3.6426184 6.7028451 0.87478602 0
3.6197207 1.4052751 0.71487367 0
3.5680768 6.7064877 0.88547069 0
3.5215826 1.4101479 0.72470725 0
3.4122627 6.7160368 0.79573542 0
3.4206297 1.4151497 0.73542202 0
3.3582559 6.7186828 0.80305415 0
3.316566 1.4202957 0.74707562 0
3.2749422 6.7227602 0.81464171 0
3.2090669 1.425601 0.75973302 0
3.1597087 6.7283897 0.83117473 0
3.1261005 1.4296882 0.76989275 0
3.0699208 6.73277 0.84444189 0
3.0405803 1.4338951 0.78076351 0
2.9764445 6.7373242 0.85864794 0
2.9228361 1.4396777 0.79627132 0
2.8464293 6.7436237 0.87894034 0
2.5297406 5.4572744 0.83158094 0
2.5344203 5.5478463 0.84359276 0
2.5392368 5.641026 0.85659361 0
2.5429423 5.7126899 0.86699837 0
2.538322 1.4607971 0.71735746 0
2.4928994 4.7428551 0.7613281 0
2.4988351 4.858139 0.76948756 0
2.5038693 4.9558644 0.77738118 0
2.5090101 5.055593 0.78642553 0
2.5142586 5.1573696 0.79652953 0
2.5185559 5.2406592 0.80550528 0
2.5240691 5.3474555 0.8179124 0
2.4337275 1.4659405 0.73073751 0
2.3758013 2.4601891 0.74856025 0
2.4120367 3.1647339 0.78433841 0
2.4164319 3.2508683 0.77702796 0
2.4218075 3.3561513 0.76884168 0
2.427042 3.4586191 0.76186115 0
2.4321699 3.5589509 0.75588161 0
2.4371939 3.657187 0.75099486 0
2.4421403 3.7538705 0.74702662 0
2.4460454 3.8301673 0.74456483 0
2.361629 1.4694819 0.74016088 0
2.3269925 1.5112681 0.73997039 0
2.2269082 1.5292218 0.75200611 0
1.2795249 6.8249683 0.8252669 0
1.1540327 6.8311186 0.84220761 0
1.0226121 6.8375568 0.86010581 0
0.88477677 6.844306 0.87903875 0
7.5994349 5.7088776 0.87850499 0
7.6035299 5.787962 0.89205086 0
7.3801885 1.436451 0.82810879 0
7.3838873 1.509191 0.81727117 0
7.3995414 1.8099325 0.89675647 0
7.4042978 1.9035306 0.88180339 0
7.4088655 1.9933891 0.86788315 0
7.3410406 6.51127 0.97338217 0
7.386652 -0.8174367 0.83525127 0
7.3285398 1.2123713 0.85677207 0
7.3724494 1.2842202 0.85131049 0
7.3763781 1.3615055 0.83944595 0
7.2489305 6.5162735 0.95746416 0
7.2501979 -1.0992217 0.86253655 0
7.2594447 -0.91765356 0.83970058 0
7.2984619 -0.8127985 0.8287912 0
7.2249627 1.2179556 0.84133035 0
7.1597028 6.5211143 0.94239521 0
7.1254168 1.2233148 0.82691175 0
7.0738058 6.5257673 0.92831868 0
7.0288506 1.2285078 0.81325805 0
6.9633336 6.5317416 0.91077608 0
6.9663353 1.2318659 0.80463862 0
6.8573141 6.5374637 0.89460188 0
6.7288103 1.2424567 0.89746922 0
6.6328621 1.2181754 0.89019954 0
3.808562 1.3939452 0.80908084 0
3.71526 1.3985748 0.81860793 0
3.6196625 1.4033067 0.82904541 0
3.5171583 6.708972 0.89298826 0
3.5215197 1.4081531 0.84044617 0
3.4652624 6.7115006 0.90081596 0
3.4123394 6.714077 0.90896642 0
3.4205618 1.4131255 0.85286921 0
3.3583364 6.7167034 0.91745245 0
3.3164921 1.4182396 0.86638159 0
3.2750278 6.7207479 0.93088853 0
3.208987 1.4235096 0.88105851 0
3.1598017 6.7263327 0.95005965 0
3.1260157 1.4275699 0.89283997 0
3.0700202 6.7306757 0.96544391 0
3.0693564 1.4303379 0.90112996 0
2.9765503 6.7351904 0.98191714 0
2.8315208 1.4441543 0.80870879 0
2.7445261 6.7485485 0.89525461 0
2.7369196 1.4487855 0.82201314 0
2.6740267 6.7519689 0.90676695 0
2.6394799 1.4535503 0.83605671 0
2.5931866 6.690135 0.90803874 0
2.6014757 6.7554855 0.91878396 0
2.5382009 1.4584942 0.85108757 0
2.4335988 1.4635949 0.8669641 0
2.3746502 2.4308994 0.86906224 0
2.3614957 1.4671068 0.87814611 0
2.3272936 1.5093205 0.87765914 0
2.2267625 1.5268114 0.89203393 0
1.2797841 6.8220801 0.99178141 0
7.3804479 1.4340031 0.96045715 0
7.3841438 1.5067866 0.94768679 0
7.3894787 1.6118529 0.92962742 0
7.3946214 1.7130926 0.91259605 0
7.3286562 1.2099912 0.99425399 0
7.3746791 1.3203456 0.98080045 0
7.2618599 -3.4501524 0.89505762 0
7.2188373 -1.7151732 0.94121689 0
7.2299571 -1.4967675 0.91312271 0
7.2403884 -1.291882 0.88695705 0
7.2250714 1.2156191 0.97631633 0
7.142868 -3.4439635 0.89043581 0
7.1255188 1.2210188 0.95956677 0
7.0289469 1.2262504 0.9437055 0
6.9358225 1.2312868 0.92888474 0
6.8158598 1.2377641 0.91041297 0
3.0116243 1.4331553 0.90976244 0
2.9227388 1.4374866 0.92343044 0
2.846545 6.7414331 1.0054491 0
2.8314178 1.4419293 0.93785453 0
2.7446492 6.7463121 1.0243678 0
2.7368107 1.4465241 0.95328432 0
2.6741557 6.7497005 1.0377184 0
2.6393638 1.4512498 0.96957183 0
2.5380778 1.4561529 0.98700494 0
1.1543062 6.8281631 1.0125452 0
1.0229017 6.8345304 1.0344828 0
0.88508308 6.8412056 1.0576887 0
7.3868098 -0.82096815 1.0323868 0
7.2598453 -0.92178917 1.0383292 0
7.298614 -0.81630421 1.024441 0
7.206954 -1.9485812 0.97144961 0
7.1131291 -3.7752562 0.92332047 0
7.0185456 -3.8803592 0.93124712 0
2.4334686 1.4612103 1.005419 0
2.3613594 1.4646916 1.0183886 0
2.327599 1.5073411 1.0175551 0
2.226615 1.5243609 1.0343529 0
1.1545836 6.8251677 1.1851869 0
7.2303896 -1.5014091 1.1306058 0
7.2408099 -1.2963409 1.0977262 0
7.2506094 -1.1035132 1.0670347 0
1.0231955 6.8314629 1.2112178 0
0.88539416 6.8380623 1.238754 0
7.3869114 -0.82442427 1.2322142 0
7.2619505 -3.455018 1.176245 0
7.2192817 -1.7200122 1.1659034 0
7.2602201 -0.92591 1.2397289 0
7.2987108 -0.81973314 1.2227621 0
7.1429534 -3.4488053 1.1702534 0
7.2074118 -1.9536352 1.2038826 0
7.1136351 -3.7819066 1.2144692 0
1.0234935 6.8283472 1.3907994 0
7.3498883 -0.48933792 1.3552129 0
7.231215 -2.6285272 1.3182917 0
7.2307949 -1.5060272 1.3511288 0
7.2412047 -1.3007798 1.3114393 0
7.2509942 -1.1077871 1.2743869 0
7.277544 -0.59552288 1.3705001 0
7.0186257 -3.8854399 1.2249503 0
0.88571006 6.8348694 1.4227349 0
7.2196984 -1.7248244 1.3937328 0
7.260601 -0.93009901 1.4444717 0
7.2693062 -0.75819111 1.4063178 0
7.1503491 -3.0768762 1.3894608 0
7.1662879 -2.7631102 1.3371919 0
7.2078395 -1.9586596 1.4395692 0
7.2416053 -1.3052931 1.5287044 0
7.2513847 -1.1121316 1.4851835 0
7.1951332 -2.2092428 1.4890039 0
7.1141891 -3.788794 1.5090299 0
7.1330466 -3.4175153 1.446517 0
7.2201219 -1.7297168 1.6253546 0
7.2312059 -1.5107217 1.5753196 0
7.1667571 -2.768899 1.6004311 0
7.181478 -2.4785547 1.5424602 0
7.018733 -3.8906865 1.5219634 0
7.1508341 -3.082974 1.6634936 0
7.1955814 -2.2145863 1.7372319 0
7.2082758 -1.9637675 1.6791822 0
7.1819406 -2.4841566 1.800001 0
7.1147079 -3.7956176 1.8077407 0
7.1335483 -3.4239564 1.7323278 0
7.1672344 -2.774785 1.8680676 0
7.0188136 -3.8958888 1.8230428 0
7.1513276 -3.0891738 1.9421095 0
7.1340585 -3.4305048 2.0229244 0
7.200923 6.2947187 -0.22525087 0
7.177918 6.3808036 -0.2235176 0
7.1520543 6.4661503 -0.22179891 0
7.2404943 6.103034 -0.22910915 0
7.2276993 6.1730223 -0.22770059 0
7.2132473 6.2427292 -0.2262975 0
7.2615504 5.9445448 -0.23229815 0
7.2509632 6.0327158 -0.23052414 0
7.2708678 5.8207016 -0.23478933 0
7.2664022 5.8915148 -0.23336495 0
7.2738261 5.6612706 -0.23799545 0
7.2736645 5.7498398 -0.23621446 0
7.2693954 5.5374622 -0.24048458 0
6.6577072 6.1753745 -0.22759737 0
6.6304164 6.2683587 -0.22572501 0
7.2567177 5.3966045 -0.24331573 0
7.2642117 5.4669061 -0.24190281 0
6.7007289 5.9726062 -0.23167887 0
6.683291 6.0677385 -0.22976425 0
7.2361584 5.2568364 -0.24612415 0
7.247581 5.3265295 -0.24472386 0
6.7169647 5.8355765 -0.23443593 0
6.7086253 5.9179382 -0.23277895 0
7.2079668 5.1185493 -0.24890205 0
7.2194457 5.1702032 -0.24786454 0
6.7234669 5.615294 -0.23886599 0
6.7237105 5.6979289 -0.23720437 0
6.3185673 6.0659652 -0.22976413 0
6.2995701 6.1309991 -0.22845456 0
6.2640438 6.1899371 -0.22426848 0
7.1860394 5.0331874 -0.2506164 0
6.7146358 5.4779949 -0.24162595 0
6.7200212 5.546567 -0.24024761 0
6.3508987 5.9114676 -0.23287398 0
6.3318009 6.0111175 -0.23086835 0
7.1509171 4.9149952 -0.25298956 0
6.7063551 5.4097576 -0.24299727 0
6.3703609 5.7098455 -0.23693013 0
6.3655186 5.7884731 -0.23534858 0
6.0606761 6.0628638 -0.22980121 0
6.0281744 6.1523452 -0.22799875 0
5.980618 6.203362 -0.22144212 0
7.1161351 4.8152742 -0.25499138 0
6.6857071 5.2878785 -0.24544597 0
6.3687706 5.5749526 -0.23964238 0
6.3706813 5.6423707 -0.23828688 0
6.1088672 5.8595128 -0.23389493 0
6.0925765 5.9434571 -0.23220536 0
6.0745611 6.0173526 -0.23071775 0
5.8254442 6.1568189 -0.227891 0
5.7990465 6.1984158 -0.22590789 0
7.0772152 4.7171645 -0.2569603 0
6.6505709 5.1410842 -0.24839428 0
6.6647792 5.1940975 -0.24732967 0
6.3620949 5.4966135 -0.24121699 0
6.1228976 5.7178831 -0.23674423 0
6.1162539 5.8030181 -0.23503169 0
5.9051232 5.9416018 -0.23223016 0
5.8814182 6.0201139 -0.23064777 0
5.8492308 6.1044602 -0.2289471 0
7.0342345 4.6208334 -0.25889313 0
6.626298 5.0624652 -0.24997279 0
6.3424597 5.36342 -0.24389331 0
6.12255 5.5852098 -0.23941201 0
6.124608 5.6515207 -0.2380788 0
5.9326544 5.7968326 -0.23514618 0
5.9182849 5.8857503 -0.23335542 0
6.970892 4.4953589 -0.26141 0
6.9954629 4.5419846 -0.26047483 0
6.5841222 4.946568 -0.2522991 0
6.6039371 4.997674 -0.25127345 0
6.3118849 5.2324233 -0.24652442 0
6.3262711 5.2865987 -0.24543647 0
6.1076946 5.4439993 -0.24225 0
6.1166191 5.5096655 -0.24093047 0
5.9410415 5.592762 -0.23925343 0
5.9418159 5.6663342 -0.23777305 0
6.9364157 4.4341526 -0.26263738 0
6.5461354 4.8585443 -0.25406539 0
6.2814484 5.1363029 -0.24845421 0
6.0804396 5.3144255 -0.24485283 0
6.093616 5.369626 -0.24374415 0
5.9343557 5.5195441 -0.24072599 0
6.4848061 4.7361865 -0.25651973 0
6.5104327 4.7845654 -0.25554946 0
6.2406974 5.0320344 -0.25054687 0
6.0556517 5.2330542 -0.2464866 0
5.9120779 5.3909321 -0.24331157 0
6.4508166 4.6768141 -0.25771028 0
6.1927223 4.9309607 -0.25257453 0
6.0081115 5.1096873 -0.2489626 0
6.0266871 5.1531115 -0.24809127 0
5.8674598 5.2426391 -0.24629076 0
5.8863378 5.2965107 -0.24520876 0
6.7401338 4.1435513 -0.26846156 0
6.1494856 4.852623 -0.25414559 0
5.9706907 5.0334082 -0.25049278 0
5.8389969 5.1750326 -0.24764806 0
6.6959925 4.0890422 -0.26955327 0
6.3121128 4.473659 -0.26178175 0
5.9240198 4.9513955 -0.25213733 0
5.7906671 5.0808344 -0.24953841 0
6.6271715 4.0095024 -0.27114594 0
6.2689395 4.4206896 -0.26284263 0
6.0152559 4.6602764 -0.25800014 0
5.831655 4.8203835 -0.25476265 0
5.8603482 4.8578162 -0.25401276 0
5.734117 4.9913836 -0.25133225 0
4.2064152 6.6419601 -0.21795544 0
6.5550981 3.9329319 -0.27267855 0
6.1963797 4.3389516 -0.2644791 0
5.9569225 4.5925593 -0.25935608 0
5.795156 4.777144 -0.25562856 0
5.6747484 4.9138374 -0.2528863 0
4.1295013 6.592186 -0.21894868 0
4.0016856 6.706986 -0.21168467 0
6.4798961 3.8594596 -0.27414855 0
6.1193643 4.2614317 -0.26603031 0
5.8867917 4.5205431 -0.26079729 0
5.7239065 4.7018142 -0.25713632 0
5.6031957 4.8359518 -0.25444585 0
4.0503378 6.531198 -0.22016744 0
3.9208288 6.6701689 -0.21737966 0
6.4280772 3.812252 -0.27509272 0
6.0588136 4.2061954 -0.26713508 0
5.8208075 4.4602976 -0.26200223 0
5.6543198 4.6382403 -0.25840777 0
5.5310946 4.7701445 -0.25574338 0
3.9767714 6.4635777 -0.22152022 0
3.849539 6.6046081 -0.21869096 0
6.3479519 3.7442157 -0.27645293 0
5.9853935 4.1449671 -0.26835907 0
5.9421558 4.1115708 -0.26902637 0
5.7427411 4.3970032 -0.26326731 0
5.5728917 4.5740848 -0.25968987 0
5.4471288 4.7058816 -0.25702736 0
3.9093623 6.3898425 -0.2229967 0
3.7832005 6.5340652 -0.22010292 0
3.6262293 6.7118287 -0.21221264 0
3.5967612 6.7133937 -0.21647871 0
6.2650542 3.6795971 -0.27774417 0
5.8865871 4.0718784 -0.26981902 0
5.6606884 4.3389726 -0.26442614 0
5.526557 4.5416427 -0.26033765 0
5.4786043 4.5116401 -0.26093626 0
5.364615 4.6537271 -0.258068 0
3.8486207 6.3105574 -0.22458559 0
3.7164655 6.4510889 -0.22176491 0
3.5377452 6.6424966 -0.21789853 0
6.1795273 3.618504 -0.27896425 0
5.8067722 4.0192614 -0.27086926 0
5.5654821 4.2806225 -0.26559013 0
5.3962154 4.465847 -0.26184902 0
5.2705269 4.6054487 -0.2590296 0
3.7707069 6.1827149 -0.22714967 0
3.7990932 6.2335801 -0.2261292 0
3.6360722 6.3302617 -0.22418661 0
3.6614342 6.3714767 -0.22336036 0
3.4763787 6.5588613 -0.21957427 0
3.2587411 6.7426682 -0.20191866 0
6.1064043 3.5702763 -0.27992684 0
6.0617361 3.5425725 -0.28047955 0
5.72435 3.9708152 -0.27183533 0
5.5066085 4.2485971 -0.26622832 0
5.4664841 4.2289195 -0.26662007 0
5.3020477 4.4224319 -0.26271278 0
5.1724739 4.5657749 -0.25981769 0
3.7419827 6.1226907 -0.22835442 0
3.6080701 6.2794089 -0.2252064 0
3.4204192 6.4715595 -0.22132422 0
3.2077141 6.7452288 -0.20858689 0
3.1462469 6.7362227 -0.21592046 0
6.0011683 3.5073085 -0.28118271 0
5.6274233 3.920362 -0.27284032 0
5.3846488 4.1929917 -0.26733449 0
5.23173 4.3950939 -0.2632556 0
5.1778994 4.377594 -0.26360223 0
5.1026711 4.5434904 -0.26025897 0
5.0473976 4.5295124 -0.26053461 0
3.6869998 5.9747257 -0.23132588 0
3.7050915 6.0300226 -0.23021515 0
3.5622528 6.1834307 -0.22713187 0
3.3499298 6.3395014 -0.22397274 0
3.3756726 6.3910084 -0.2229396 0
3.0937448 6.6519036 -0.21766582 0
3.1156144 6.6884322 -0.21693344 0
5.5655527 3.891398 -0.2734167 0
5.5152135 3.870091 -0.27384019 0
5.2797942 4.1544023 -0.26810014 0
5.0866761 4.3535419 -0.26407689 0
4.9511933 4.5123138 -0.26087105 0
3.6706357 5.9103179 -0.23262016 0
3.5179226 6.0659108 -0.22949061 0
3.5366855 6.1207743 -0.22838923 0
3.326463 6.2869406 -0.22502734 0
3.0594001 6.5898399 -0.21891044 0
5.8140883 3.4113932 -0.28309304 0
5.4257803 3.8361242 -0.27451444 0
5.1724443 4.1232796 -0.26871544 0
5.0220041 4.3400292 -0.26434228 0
4.965982 4.3315945 -0.2645064 0
4.8213162 4.5015774 -0.26107416 0
3.646291 5.7629976 -0.23558192 0
3.65448 5.8288817 -0.23425712 0
3.4787292 5.9165149 -0.23249082 0
3.491564 5.9730062 -0.23135614 0
3.2888715 6.1904602 -0.2269637 0
3.0088677 6.4882874 -0.22094747 0
5.750073 3.382786 -0.28366199 0
5.7014713 3.3626752 -0.28406161 0
5.3348308 3.8063717 -0.27510375 0
5.2822394 3.7913218 -0.27540123 0
5.0741501 4.1016703 -0.26914033 0
5.0190077 4.0922384 -0.26932454 0
4.8814335 4.3229136 -0.26467264 0
4.8153605 4.31989 -0.26472697 0
4.7479243 4.5014167 -0.26107019 0
4.6747131 4.5071487 -0.26094776 0
3.641469 5.6139126 -0.23858134 0
3.6413708 5.6885138 -0.23708025 0
3.4663751 5.8403258 -0.23402163 0
3.2516243 6.0696239 -0.22938986 0
2.959115 6.3708596 -0.2233039 0
2.9800961 6.4235144 -0.22224715 0
2.5984983 6.760519 -0.20339733 0
5.6195555 3.3314288 -0.28468189 0
5.215826 3.7749808 -0.27572331 0
4.9412069 4.0830407 -0.26950186 0
4.7397447 4.3207121 -0.26470301 0
4.6736584 4.324553 -0.26461932 0
4.5458002 4.5277615 -0.26052064 0
4.4586892 4.549861 -0.2600677 0
3.668277 5.4006028 -0.24287647 0
3.6550243 5.4738779 -0.24140058 0
3.6446087 5.5559969 -0.23974708 0
3.4544487 5.7059493 -0.23672253 0
3.2196615 5.923779 -0.23231938 0
3.2301149 5.9802504 -0.23118484 0
2.9260204 6.2774119 -0.22517967 0
2.5821154 6.6901417 -0.20295781 0
2.5045526 6.6672635 -0.21078512 0
5.536644 3.3028598 -0.28524819 0
5.4864235 3.2871103 -0.28556001 0
5.1355124 3.7579913 -0.27605706 0
5.0815606 3.7486753 -0.2762391 0
4.8070984 4.0754533 -0.26964125 0
4.6078625 4.3321333 -0.26446041 0
4.5238557 4.3462648 -0.26416805 0
4.4043384 4.5678401 -0.25970089 0
4.3283935 4.5982685 -0.2590816 0
4.2473931 4.6376162 -0.25828242 0
3.741075 5.1813636 -0.24729583 0
3.7104442 5.2580252 -0.24574995 0
3.6803632 5.352478 -0.24384615 0
3.4638741 5.4849486 -0.24116735 0
3.4566276 5.561584 -0.23962565 0
3.4531913 5.6288881 -0.23827195 0
3.201869 5.7756782 -0.23529565 0
3.2084804 5.8442044 -0.23391834 0
2.8902917 6.155158 -0.22763449 0
2.9049959 6.2098198 -0.22653675 0
2.4337864 6.6386986 -0.21786663 0
5.4188876 3.2679849 -0.28593791 0
5.0001445 3.7377419 -0.27645096 0
4.9320107 3.7308588 -0.27658269 0
4.7286711 4.0758195 -0.26962626 0
4.6615295 4.0799313 -0.269537 0
4.4683771 4.3585916 -0.26391476 0
4.3954225 4.3792057 -0.26349309 0
4.3146253 4.4066477 -0.26293331 0
4.1974421 4.6658125 -0.25771052 0
4.1424193 4.7015185 -0.25698718 0
4.0699048 4.7552156 -0.25590029 0
3.9008303 4.9226308 -0.25251922 0
3.8608525 4.9749551 -0.25146204 0
3.8021121 5.064446 -0.24965501 0
3.7622681 5.1366158 -0.24819852 0
3.4925871 5.3339367 -0.24420674 0
3.4726064 5.4279113 -0.24231511 0
3.1979246 5.6381865 -0.23805992 0
3.198571 5.706953 -0.2366772 0
2.8576794 6.0030928 -0.23068903 0
2.871038 6.0725069 -0.22929457 0
2.394573 6.535707 -0.21993375 0
2.4135487 6.5874329 -0.21889551 0
5.3338127 3.2464418 -0.28636277 0
5.2652006 3.2314305 -0.28665793 0
4.849915 3.726439 -0.27666354 0
4.5945363 4.086257 -0.26940322 0
4.5168762 4.0980501 -0.26915845 0
4.439682 4.1127715 -0.26885486 0
4.2618408 4.4279895 -0.262499 0
4.1845756 4.4644656 -0.261758 0
4.093245 4.5152464 -0.26072791 0
4.0450344 4.5457659 -0.26010948 0
3.6085367 5.0300326 -0.25032902 0
3.5669601 5.1163187 -0.2485899 0
3.5251002 5.2234626 -0.24643132 0
3.2071574 5.4896502 -0.24104762 0
3.2005875 5.5695109 -0.23944113 0
2.8401279 5.8771739 -0.23321928 0
2.8470242 5.9332504 -0.23209238 0
2.3654962 6.4486518 -0.22168145 0
5.1788416 3.2154684 -0.28697041 0
4.7128425 3.7261434 -0.27665603 0
4.3851213 4.1261435 -0.26858068 0
4.2987785 4.151237 -0.26806763 0
3.9984519 4.5787826 -0.25944105 0
3.9382532 4.6254401 -0.25849694 0
3.7214689 4.8527336 -0.25390521 0
3.6615317 4.9391012 -0.25216269 0
3.6315563 4.9880586 -0.25117528 0
3.2453165 5.2759595 -0.24534832 0
3.2281222 5.3540659 -0.24377604 0
3.2143116 5.4328918 -0.24218968 0
2.8334572 5.7927513 -0.23491618 0
2.3299351 6.3252659 -0.22415897 0
2.3442883 6.3783855 -0.22309226 0
5.1093988 3.2046318 -0.2871815 0
5.0570898 3.1979618 -0.28731051 0
4.5759687 3.7355032 -0.27645439 0
4.245492 4.1692119 -0.26770091 0
4.1826015 4.1937938 -0.26720044 0
4.0800085 4.2401829 -0.26625761 0
4.0199246 4.2712126 -0.26562777 0
3.3209083 5.0488439 -0.24992257 0
3.2883251 5.1340156 -0.24820669 0
3.260253 5.2208557 -0.24645779 0
2.8314919 5.5813656 -0.23916659 0
2.8295825 5.6658978 -0.2374666 0
2.2936625 6.1643682 -0.22739075 0
2.3086195 6.2361202 -0.22594942 0
4.9696054 3.1892872 -0.28747633 0
4.8994207 3.1843073 -0.28756958 0
4.4399638 3.7544992 -0.27605909 0
4.3589792 3.7701161 -0.27573711 0
3.980758 4.2936029 -0.26517367 0
3.9043729 4.3417053 -0.26419896 0
3.8215914 4.4006701 -0.2630052 0
3.7771654 4.4356065 -0.26229832 0
3.5327525 4.6867509 -0.25722432 0
3.4727051 4.7693963 -0.25555661 0
3.4178438 4.8556924 -0.25381595 0
3.3688204 4.9455576 -0.25200412 0
3.3390119 5.0070195 -0.25076532 0
2.8431442 5.4410782 -0.24198863 0
2.8361359 5.5111036 -0.24057989 0
2.2811635 6.0921917 -0.2288409 0
1.5487165 6.8239083 -0.19933933 0
4.8290787 3.181622 -0.28761667 0
4.758667 3.1805801 -0.28763077 0
4.3054395 3.7828138 -0.27547652 0
4.212606 3.8085599 -0.27494973 0
2.879415 5.2334476 -0.24616723 0
2.8650684 5.3022118 -0.24478312 0
2.8506331 5.3853078 -0.24311081 0
2.2642283 5.9652338 -0.23139209 0
4.6882238 3.1818414 -0.28759846 0
4.6178017 3.1847491 -0.2875331 0
4.1080971 3.8434703 -0.27423751 0
4.0056338 3.8842759 -0.27340695 0
3.9426792 3.9124999 -0.27283323 0
2.9424896 5.018136 -0.25050291 0
2.9203722 5.0846519 -0.24916326 0
2.8929906 5.1789536 -0.24726431 0
2.253485 5.8377185 -0.23395512 0
1.3640604 6.8085756 -0.2141221 0
4.5474739 3.1899633 -0.28742135 0
4.4772601 3.1968236 -0.28727651 0
3.8931699 3.9369843 -0.27233604 0
3.8081641 3.9831026 -0.27140033 0
3.713804 4.040843 -0.27023005 0
3.6563654 4.0794468 -0.26944816 0
3.0889158 4.7010055 -0.25689417 0
3.0488524 4.7746387 -0.25540963 0
3.0001526 4.8753424 -0.25337991 0
2.9621992 4.9656773 -0.25155973 0
1.3111572 6.6347761 -0.2178354 0
1.3317065 6.7099156 -0.21632653 0
4.4072666 3.2059855 -0.28708538 0
4.3200889 3.2198992 -0.28679711 0
3.6226659 4.1037564 -0.26895604 0
3.5676489 4.1458735 -0.26810375 0
3.2622058 4.448235 -0.26199386 0
3.2112412 4.5144629 -0.26065716 0
3.1475241 4.6059828 -0.25881064 0
3.110157 4.6648984 -0.2576223 0
1.2924685 6.5591955 -0.21935338 0
4.2680063 3.2297196 -0.28659454 0
4.1989231 3.2447691 -0.28628513 0
1.2648091 6.4325047 -0.22189818 0
1.2752733 6.4832973 -0.22087787 0
4.1301799 3.2614419 -0.28594315 0
4.061976 3.2803762 -0.28555569 0
3.9942017 3.3009169 -0.28513607 0
1.2379291 6.2793884 -0.22497442 0
1.250616 6.35606 -0.22343391 0
3.827486 3.361012 -0.28391129 0
3.7783151 3.3813963 -0.28349656 0
2.492769 4.8117042 -0.24507305 0
1.2271292 6.2024755 -0.22651994 0
3.7295153 3.4027116 -0.28306317 0
3.6652391 3.4329777 -0.28244826 0
3.5703101 3.4815662 -0.28146198 0
3.4927139 3.5250528 -0.28057992 0
2.498239 4.6030731 -0.25880548 0
2.4863129 4.6761265 -0.25491688 0
2.4900424 4.7544394 -0.24912396 0
1.2129099 6.0739193 -0.22910354 0
3.4468796 3.5524724 -0.28002405 0
3.3867896 3.5907738 -0.279248 0
3.2985399 3.6512215 -0.27802387 0
3.2128534 3.7154379 -0.27672416 0
2.7833567 4.1451001 -0.26804242 0
2.7291558 4.2167892 -0.26659557 0
2.6776791 4.290566 -0.26510701 0
2.6192794 4.3814769 -0.26327327 0
2.5647836 4.4749174 -0.26138896 0
2.5223413 4.5545459 -0.25978363 0
1.2019012 5.9192681 -0.23221216 0
4.4975238 2.2242184 -0.30679047 0
4.4240627 2.2298632 -0.30667049 0
2.8283086 4.0890522 -0.2691738 0
4.3506851 2.2368746 -0.30652311 0
4.2774467 2.2455926 -0.30634135 0
4.155755 2.2635326 -0.3059701 0
4.0346055 2.2854428 -0.30551901 0
3.9622505 2.3006256 -0.30520752 0
3.8902206 2.3174994 -0.30486202 0
3.7946701 2.3422461 -0.30435631 0
3.6997709 2.3696785 -0.30379665 0
3.4427371 2.4587598 -0.30198377 0
3.3738298 2.4866166 -0.30141789 0
3.2602394 2.5362942 -0.30040956 0
3.1482189 2.589726 -0.29932591 0
3.0599549 2.6354413 -0.29839951 0
2.9729319 2.6836705 -0.29742262 0
2.8872209 2.7343819 -0.29639602 0
2.8237967 2.7739489 -0.29559532 0
2.7819898 2.8011365 -0.29504532 0
2.7200203 2.8431191 -0.29419619 0
2.6386714 2.901073 -0.29302442 0
2.5589161 2.9613659 -0.2918058 0
7.6255331 6.4310651 -0.17410991 0
7.6287127 6.4979568 -0.17451262 0
7.5475206 6.537971 -0.16772026 0
7.6193104 6.3001671 -0.17368512 0
7.6224031 6.3652296 -0.17384401 0
7.4356093 6.5431042 -0.15824763 0
7.6122408 6.1514664 -0.17379138 0
7.6162591 6.2359877 -0.1736573 0
7.3314791 6.5478811 -0.14948194 0
7.6053305 6.0061278 -0.17450376 0
7.6082759 6.0680647 -0.17412737 0
7.598546 5.8634491 -0.175832 0
7.6024113 5.9447217 -0.17500323 0
7.5918465 5.7225714 -0.1777443 0
7.5947099 5.7827764 -0.17685534 0
7.5852003 5.5828223 -0.18026549 0
7.588994 5.6625915 -0.17875493 0
7.5785718 5.4434614 -0.18337888 0
7.5814128 5.5031824 -0.18197332 0
7.571928 5.3037906 -0.18712503 0
7.5757279 5.3836794 -0.18491089 0
7.5652356 5.1631289 -0.19150144 0
7.5681119 5.2235723 -0.18954912 0
6.2895241 6.5563569 -0.12679876 0
6.2625332 6.5835423 -0.12510523 0
7.5584593 5.0206909 -0.19656694 0
7.5623431 5.1023307 -0.19359143 0
6.2833056 6.4254422 -0.12111366 0
6.286695 6.4967909 -0.12410024 0
6.1807828 6.5872636 -0.11678635 0
7.5515652 4.8758006 -0.20233405 0
7.5545359 4.9382343 -0.19977611 0
6.2379303 6.3493667 -0.14133865 0
6.1599531 6.4115124 -0.16278818 0
6.1091762 6.4986119 -0.16103178 0
6.045814 6.5768008 -0.15807533 0
5.9662504 6.5981264 -0.1495859 0
7.5455298 4.7489758 -0.20789236 0
7.548562 4.8126888 -0.2050485 0
6.2414703 6.2136102 -0.1763583 0
6.2190127 6.2909865 -0.16521752 0
5.9041896 6.6009307 -0.14221571 0
5.8310695 6.6042385 -0.13376155 0
7.5393515 4.6191559 -0.21405385 0
7.5424576 4.6844311 -0.21090364 0
6.1581173 6.194591 -0.20513372 0
6.0871825 6.19771 -0.1924728 0
5.7896128 6.6061172 -0.12910379 0
7.5308409 4.4403491 -0.22328931 0
7.5351319 4.5304999 -0.21854471 0
6.0215478 6.2005992 -0.18086526 0
5.9404187 6.2201662 -0.1755307 0
5.8904839 6.3004651 -0.1649947 0
5.8362994 6.3850737 -0.16328809 0
5.7757444 6.4654045 -0.16166686 0
5.7278371 6.5208297 -0.16054764 0
7.5242124 4.3010788 -0.23105457 0
7.5275526 4.3712559 -0.22708774 0
5.8881831 6.2073779 -0.20252691 0
5.8064828 6.2109351 -0.1861528 0
7.5173311 4.1565294 -0.23961402 0
7.520802 4.2294369 -0.23524183 0
5.7470136 6.2141304 -0.19501089 0
5.6843762 6.237443 -0.17887005 0
5.62609 6.3286104 -0.16440283 0
5.5808492 6.3811846 -0.16334122 0
5.3669081 6.5423841 -0.13738607 0
5.3267097 6.6045823 -0.14421934 0
5.2642374 6.6280241 -0.13073498 0
7.5125837 4.0568051 -0.24580103 0
7.5149746 4.1070261 -0.24265729 0
5.6188703 6.2202234 -0.18736137 0
5.3640928 6.483377 -0.14636938 0
5.1955471 6.6340261 -0.13746445 0
5.1199512 6.6380992 -0.13105324 0
5.0546064 6.6411738 -0.12940481 0
4.9839563 6.6448202 -0.14359455 0
4.9180474 6.6479206 -0.14190681 0
4.8454089 6.6513596 -0.14108561 0
4.7727413 6.6548252 -0.14154665 0
4.7067637 6.6579909 -0.14290832 0
7.4778247 3.5438251 -0.28015471 0
4.6360583 6.6610618 -0.12835455 0
4.5627189 6.6645851 -0.13011295 0
7.4197598 3.4655666 -0.28216115 0
4.5029764 6.6550632 -0.13145632 0
7.3558178 3.3920157 -0.28363383 0
5.9479933 4.9244652 -0.2112288 0
5.8954306 4.9275751 -0.18623805 0
7.2898822 3.3202775 -0.28506988 0
5.8588896 4.8841701 -0.1862791 0
4.2034936 6.6969433 -0.16289304 0
4.1363945 6.7001357 -0.16294435 0
7.204793 3.2331703 -0.28681314 0
7.2392111 3.2676339 -0.28612348 0
4.0731454 6.7029843 -0.15496768 0
4.0012503 6.7060881 -0.13925079 0
7.4497128 2.7480693 -0.20604518 0
7.4534373 2.8258321 -0.20143309 0
7.1344004 3.1658592 -0.28815973 0
3.9246776 6.7099028 -0.14781418 0
3.8557887 6.7133422 -0.15590613 0
7.4477949 2.7080395 -0.20844075 0
7.0619097 3.1008132 -0.28940418 0
3.7823067 6.7170177 -0.16484916 0
3.7193418 6.7201719 -0.1727694 0
7.4399014 2.543225 -0.21839179 0
6.9694452 3.0217011 -0.29098564 0
3.6522639 6.7229662 -0.15304586 0
3.5743794 6.7264638 -0.14274947 0
7.4336748 2.4132338 -0.22635183 0
6.893476 2.9608302 -0.292202 0
3.5036144 6.7297902 -0.14076404 0
3.4206874 6.7339182 -0.14988378 0
7.4271097 2.2761579 -0.23486067 0
6.8158579 2.9020829 -0.29337555 0
3.3542762 6.7372265 -0.15731721 0
3.2912097 6.7401452 -0.15325397 0
7.4202466 2.1328712 -0.24384895 0
6.7366471 2.8455021 -0.29450548 0
3.207583 6.7438498 -0.13965155 0
3.1541576 6.7465 -0.14507811 0
7.4129739 1.9810452 -0.25349402 0
6.6559029 2.7911286 -0.29559091 0
5.8864841 3.5972123 -0.2077792 0
3.0981517 6.749279 -0.15081793 0
3.0084262 6.7537346 -0.16012022 0
7.4053416 1.8216941 -0.26371628 0
6.5736833 2.7390041 -0.29663098 0
5.8230534 3.5752823 -0.20710918 0
5.8054757 3.5878282 -0.25895038 0
2.877975 6.7602158 -0.17383167 0
7.399991 1.7100084 -0.27094823 0
6.4900484 2.6891654 -0.29762498 0
2.7323408 6.7665701 -0.14783159 0
7.3944283 1.5938723 -0.27852002 0
2.5983543 6.7587042 -0.11626802 0
7.3825998 1.3469312 -0.2947816 0
7.3886366 1.4729645 -0.28645569 0
2.5821171 6.6882572 -0.11639172 0
2.5041745 6.6654987 -0.12210815 0
7.3573189 1.2479312 -0.30077422 0
6.2092447 2.5433455 -0.30053014 0
7.2715116 1.2519834 -0.29809299 0
6.1425958 2.5133986 -0.30112594 0
6.0753956 2.4846804 -0.30169705 0
2.1112175 6.7962484 -0.15443532 0
6.0075388 2.4575126 -0.30223688 0
1.9874567 6.8023329 -0.16423321 0
5.9162331 2.4233754 -0.30291474 0
1.8534276 6.8089228 -0.17490087 0
6.7863073 1.2749212 -0.28401232 0
5.8239918 2.3917663 -0.30354169 0
1.7077341 6.8160872 -0.18655615 0
6.7097683 1.2785432 -0.28197008 0
6.6343088 1.2821147 -0.28000748 0
5.7074342 2.3559844 -0.30425036 0
2.5374181 5.7499104 -0.20100465 0
6.6165705 1.1455753 -0.28934067 0
5.5897331 2.3239694 -0.30488318 0
2.5335665 5.6689386 -0.20303497 0
5.4947467 2.3014004 -0.30532825 0
2.52738 5.5388951 -0.20698239 0
5.3751097 2.2770283 -0.30580732 0
4.0635242 3.6848979 -0.22918934 0
2.5195479 5.3733978 -0.17278174 0
2.5234866 5.4570594 -0.20989704 0
5.2788506 2.2601812 -0.30613729 0
5.2305179 2.2528682 -0.30627996 0
4.0002046 3.6878414 -0.23149607 0
2.5131531 5.2390065 -0.17852025 0
6.7714086 0.44505596 -0.34274316 0
5.1335034 2.2404742 -0.30652034 0
2.5065918 5.1011329 -0.18521976 0
0.96477771 6.8508272 -0.10568056 0
6.6600637 0.40209055 -0.34359664 0
5.0117936 2.2283466 -0.30675325 0
2.4998116 4.9586935 -0.19296847 0
0.72712493 6.8624296 -0.11703521 0
6.5853043 0.37478018 -0.34413871 0
5.6651096 1.3280907 -0.25973904 0
4.938549 2.2230954 -0.30685222 0
4.8651676 2.2195382 -0.30691716 0
2.494107 4.8383765 -0.17847246 0
6.4724083 0.33582973 -0.34491134 0
5.6005192 1.3311617 -0.25874221 0
5.5363641 1.3342135 -0.25779903 0
4.7917042 2.2173405 -0.30695483 0
4.7181721 2.2168431 -0.30695826 0
2.4863074 4.6740475 -0.16649741 0
2.490037 4.7523928 -0.16186003 0
0.46053195 6.8754454 -0.12982093 0
6.3587871 0.29890871 -0.34564316 0
5.4726133 1.3372462 -0.25690851 0
5.409236 1.3402627 -0.25606984 0
4.6446133 2.2177093 -0.30693433 0
4.5710545 2.2202806 -0.30687612 0
2.4805298 4.5526752 -0.17400351 0
6.2825766 0.27565575 -0.34610364 0
5.3462057 1.3432631 -0.25528219 0
5.2522788 1.3477364 -0.25420114 0
2.4724014 4.3819509 -0.18522611 0
2.4765418 4.4689207 -0.17940019 0
